ply
format ascii 1.0
element vertex 686
property float x
property float y
property float z
property uint8 red
property uint8 green
property uint8 blue
end_header
-0.3905186057090759 0.8248282074928284 -0.34723296761512756 78 91 97
0.35670793056488037 -0.8706439733505249 0.6368898749351501 255 227 81
-0.2837230861186981 -0.6051399111747742 -0.29940199851989746 227 214 180
0.6293741464614868 -1.0380877256393433 -0.30749985575675964 127 71 46
-0.29159289598464966 0.8823571801185608 -0.10599607974290848 12 14 19
0.3531440198421478 -0.5704218745231628 0.9261831641197205 133 67 0
-0.10742317140102386 -0.696205735206604 0.663240373134613 255 235 67
0.04492770507931709 -0.8000040650367737 0.6414435505867004 120 23 0
-0.17648617923259735 -0.3911072909832001 -0.3102872371673584 57 53 53
0.24245356023311615 -0.15834969282150269 0.6448948979377747 247 212 60
0.05358221381902695 -0.5255996584892273 0.8619534969329834 255 254 70
0.18609382212162018 0.409934401512146 0.31430891156196594 255 205 54
-0.05774012207984924 -1.0808097124099731 -0.28584572672843933 243 230 193
0.04472649469971657 -0.7381876111030579 0.6505227088928223 255 240 98
-0.04905636981129646 -0.35687002539634705 0.11572636663913727 167 159 167
0.6291437745094299 -0.5263000726699829 -0.30753257870674133 81 45 30
0.43633049726486206 0.020096583291888237 -0.2912636995315552 8 9 10
-0.30134400725364685 -0.5322790741920471 0.8859730958938599 255 254 70
-0.3895498514175415 0.8747028708457947 -0.07471895217895508 0 0 0
-0.1773991882801056 -0.6525760889053345 0.6569781303405762 255 241 70
-0.32552921772003174 -0.5400161743164062 0.872801661491394 255 190 47
-0.21353909373283386 -0.7136638164520264 0.6453431248664856 254 111 0
0.11174464970827103 -0.5158265829086304 0.8314284682273865 255 217 59
0.17936524748802185 0.10465660691261292 -0.31038981676101685 139 128 119
-0.03524724394083023 0.3773868978023529 0.22046497464179993 150 121 89
-0.028328578919172287 0.3054969906806946 0.2825346887111664 203 107 0
-0.21414074301719666 0.8937577605247498 0.0014527881285175681 98 84 23
0.21632573008537292 0.034499723464250565 -0.30052345991134644 194 151 111
0.2846217751502991 -0.9861078262329102 -0.30053263902664185 238 223 187
0.6297813653945923 1.0005143880844116 -0.34250369668006897 238 205 160
0.09582784026861191 0.9507430195808411 -0.03457023575901985 91 109 142
0.29515746235847473 -0.7037527561187744 0.6627594232559204 255 220 64
0.23191234469413757 -0.4870035648345947 -0.3107178509235382 255 235 181
0.14911381900310516 -0.3592706620693207 0.6075320839881897 170 147 56
-0.017693541944026947 -0.7144894003868103 0.6642780900001526 255 231 67
-0.0062851072289049625 -0.40641075372695923 0.9089463949203491 18 23 33
-0.013895492069423199 0.49832046031951904 -0.3275764286518097 42 34 25
0.09731829166412354 0.6293953657150269 -0.0042447964660823345 158 109 0
-0.09224527329206467 -0.9952067136764526 -0.3085557818412781 245 220 167
-0.2707776129245758 0.7151252627372742 -0.3020018935203552 0 0 0
-0.29995080828666687 -0.675707995891571 0.6982678174972534 255 253 42
0.2490655779838562 0.875896155834198 -0.02343636564910412 254 199 41
0.2017487734556198 0.9212191700935364 -0.30880972743034363 39 45 44
-0.07357373833656311 0.4918738603591919 -0.17542339861392975 92 62 0
-0.09153826534748077 0.6167381405830383 0.6778112649917603 255 254 50
-0.08446693420410156 -0.9210999608039856 -0.2989314794540405 231 217 181
-0.022425780072808266 0.5411421060562134 -0.18845634162425995 85 66 0
0.5512992739677429 -0.6570260524749756 -0.2587382197380066 11 0 0
0.4683848023414612 0.7571721076965332 -0.3077182173728943 96 92 77
-0.1643487513065338 0.2879839241504669 -0.30402377247810364 71 63 53
-0.01889871247112751 0.7750484347343445 0.008650681003928185 1 0 0
-0.35655051469802856 0.7035396099090576 0.044122226536273956 3 0 0
-0.3172450661659241 0.46927136182785034 0.24874268472194672 254 215 57
-0.251507967710495 0.2670229375362396 0.26264673471450806 254 214 66
0.09295900166034698 -1.044664978981018 -0.29921743273735046 237 221 184
-0.42955514788627625 -0.6680015325546265 -0.3077628016471863 106 94 67
0.06728696823120117 0.4025988280773163 0.5666300654411316 255 226 60
-0.3121781051158905 0.47442129254341125 0.2214096486568451 254 200 51
-0.2507467567920685 -0.173309788107872 0.7566834092140198 251 212 67
0.11080814152956009 -0.9411327838897705 0.6491820216178894 255 156 19
-0.13149785995483398 -0.1639305204153061 0.7086966633796692 157 158 172
0.2206256240606308 -0.12836408615112305 0.7413977384567261 243 208 67
0.22794443368911743 -0.14556604623794556 0.7255698442459106 91 39 0
0.5815833806991577 1.1443800926208496 -0.30786100029945374 57 36 27
-0.03594003990292549 -0.4042796194553375 0.9293425679206848 123 135 166
0.40195363759994507 0.9793899059295654 -0.29836714267730713 199 189 162
-0.15744319558143616 0.8034689426422119 0.6472848653793335 74 28 0
0.09497162699699402 0.7012271285057068 0.6850178241729736 255 241 78
-0.24908924102783203 0.44732266664505005 0.5282783508300781 110 167 251
-0.10712302476167679 0.8885095119476318 0.6715067625045776 255 167 48
-0.15063056349754333 0.7750222086906433 0.6669966578483582 123 93 21
-0.5491232872009277 -1.0988515615463257 -0.304263710975647 92 77 46
-0.23691359162330627 -0.9255421757698059 -0.30545249581336975 151 134 96
0.14297235012054443 -0.8978564739227295 -0.3103066384792328 65 70 76
-0.29743653535842896 -0.7770155668258667 -0.31106993556022644 96 90 74
0.03341967985033989 0.5732818841934204 0.6849653124809265 255 237 76
0.41438671946525574 -0.5791233777999878 0.8281912803649902 175 135 38
0.48449471592903137 1.00546133518219 -0.31194233894348145 66 68 66
-0.3790262043476105 -0.8262404799461365 0.6571152210235596 255 236 60
-0.24792389571666718 -0.9258785247802734 0.6555772423744202 255 234 73
0.24251700937747955 0.3607804477214813 0.30849727988243103 169 178 204
-0.6396205425262451 -1.13568115234375 -0.2893311381340027 0 0 0
-0.17215405404567719 0.8752315640449524 0.6503733396530151 255 233 73
-0.11730997264385223 -0.34811151027679443 -0.03295876085758209 99 107 125
-0.06924953311681747 -0.8363102078437805 0.6280651092529297 255 192 52
0.16954535245895386 1.118787169456482 -0.29884207248687744 166 159 139
0.2456880807876587 -0.8612473011016846 0.6508516669273376 255 232 70
-0.027239467948675156 0.45338088274002075 0.6708937287330627 107 34 26
-0.3445030450820923 -0.5184776186943054 -0.3110675811767578 44 39 36
-0.35321044921875 -0.27978113293647766 -0.2973189055919647 214 197 160
0.3590351641178131 0.9985938668251038 -0.30899080634117126 109 96 68
0.015601195394992828 -1.0502605438232422 -0.28004205226898193 129 114 81
0.2992544174194336 -0.817771315574646 0.6726775765419006 255 216 65
-0.2883150279521942 -0.08137597888708115 0.21221718192100525 88 96 122
0.410435289144516 1.1155320405960083 -0.30083388090133667 227 214 179
-0.37316203117370605 -0.13462084531784058 -0.24989989399909973 0 0 0
-0.16299010813236237 -0.45704197883605957 -0.30965518951416016 92 76 51
-0.20638786256313324 -0.9479665160179138 0.6331440806388855 179 71 0
-0.15954060852527618 0.8061168193817139 0.6508451700210571 255 228 71
-0.36960557103157043 -0.8907371163368225 0.6410490870475769 255 252 79
0.24188365042209625 -0.14333820343017578 0.7264238595962524 255 198 55
-0.3802357614040375 -0.8811243176460266 0.6514302492141724 255 233 72
-0.3667307198047638 -0.7939960360527039 -0.3079170882701874 109 97 70
0.17909707129001617 1.0188993215560913 -0.03936437517404556 126 125 136
0.12904375791549683 0.8730238080024719 0.6530904769897461 255 239 65
-0.5925272703170776 -0.6630843281745911 -0.2727782428264618 111 79 65
0.39955124258995056 -0.6683995723724365 0.7287304997444153 255 254 74
-0.34675332903862 0.5166705250740051 -0.11411574482917786 49 53 71
-0.3744732737541199 -0.09731170535087585 -0.27913814783096313 0 0 0
0.3117613196372986 1.144168734550476 -0.31086793541908264 207 197 167
-0.16811856627464294 0.8108544945716858 0.6400558352470398 40 9 0
0.4726380407810211 0.9393180012702942 -0.296587198972702 235 222 186
-0.5983607769012451 -0.5642933249473572 -0.26137402653694153 108 73 60
0.5489277243614197 1.0631877183914185 -0.31073465943336487 39 36 28
-0.3439035713672638 0.5323717594146729 -0.11384782195091248 43 55 80
0.08539048582315445 -0.5451436042785645 -0.29951754212379456 240 219 177
-0.41365402936935425 -0.20578545331954956 -0.2970120906829834 210 197 162
0.08987924456596375 -0.39627230167388916 0.9097025394439697 96 100 120
-0.21668216586112976 0.8751865029335022 0.3578518033027649 73 19 14
0.20309241116046906 -0.9714474678039551 -0.3110843300819397 37 42 51
-0.18706893920898438 -0.2168203443288803 0.4475235939025879 130 111 43
-0.6356837153434753 1.0708703994750977 -0.3137030005455017 164 202 205
-0.06989274173974991 -0.00785369798541069 0.4877242147922516 201 174 60
0.09276686608791351 0.4354715645313263 0.6805686354637146 255 232 72
-0.0870760902762413 0.9625719785690308 0.0776030495762825 108 119 146
-0.6326945424079895 0.6539690494537354 -0.23397979140281677 72 53 48
-0.6402038931846619 -0.9609494805335999 -0.2624253034591675 0 0 0
0.03240641951560974 -0.42376378178596497 0.9200568795204163 0 0 0
-0.6293973922729492 0.8206755518913269 -0.33672600984573364 89 88 82
-0.6266332864761353 1.1387845277786255 -0.3398468494415283 90 90 83
-0.6296321153640747 0.7780857682228088 -0.3368363678455353 92 91 85
-0.3392646312713623 -1.1013067960739136 -0.2988054156303406 255 247 215
0.17134471237659454 0.8863596320152283 0.503627359867096 255 220 83
-0.27710941433906555 0.9303044080734253 0.15945930778980255 60 60 65
-0.009820345789194107 0.9051291346549988 0.6540675163269043 125 113 35
0.09075675904750824 0.30950361490249634 0.2849369943141937 255 152 0
-0.03883242607116699 -0.9315928220748901 -0.2845088541507721 123 89 9
-0.12467547506093979 -0.6837038397789001 -0.28555166721343994 239 224 185
-0.20338019728660583 0.021092429757118225 0.47464123368263245 200 175 61
-0.009846463799476624 -0.0031309700571000576 0.4866738021373749 202 176 61
-0.17972426116466522 0.8775243163108826 0.6497089266777039 10 4 0
0.40761110186576843 -0.6588153839111328 0.7269882559776306 170 124 29
-0.2673589587211609 0.20335346460342407 -0.00012531776155810803 0 0 2
-0.09218612313270569 -0.28166407346725464 -0.30009615421295166 213 195 156
-0.1530156135559082 -0.6460167765617371 -0.3134239614009857 71 65 61
-0.3806975781917572 -0.8539182543754578 0.6468510031700134 24 15 5
-0.02413683943450451 -0.6755296587944031 -0.27594611048698425 254 229 178
0.37598782777786255 -0.4869202673435211 0.7972980737686157 255 201 55
-0.6252074837684631 0.9091848134994507 -0.2945000231266022 49 32 27
-0.3751797676086426 -0.6163081526756287 0.7100284695625305 97 87 25
0.22915349900722504 -0.4322684407234192 0.9197556376457214 212 220 244
0.08028832823038101 -0.7301270961761475 -0.3079974949359894 106 74 24
-0.19123579561710358 0.5326828360557556 0.6618450284004211 45 32 13
-0.08013565093278885 0.893845796585083 0.6699934005737305 255 232 69
0.35989129543304443 -0.6306755542755127 0.9200097322463989 194 94 0
-0.04749128967523575 -1.0516283512115479 -0.2877604067325592 105 94 66
0.3643575608730316 -0.5137187242507935 0.9143326282501221 255 174 32
-0.16061259806156158 -0.5228235125541687 -0.2975548803806305 240 222 182
-0.12072569876909256 -0.35756587982177734 0.06487264484167099 183 176 190
-0.01802670955657959 -0.20125983655452728 0.09524258971214294 137 81 12
0.09944961965084076 0.8673615455627441 0.6745502948760986 255 254 56
0.19231203198432922 -0.13877326250076294 0.7475070953369141 254 222 75
-0.25342583656311035 0.9020472168922424 0.20788732171058655 100 87 25
0.5266503691673279 1.133366346359253 -0.30938681960105896 100 105 99
-0.3004744350910187 -0.5237078070640564 0.9230130314826965 76 61 0
-0.5053272247314453 0.939215362071991 -0.29721876978874207 86 83 74
-0.17316852509975433 -0.20118293166160583 -0.3072575330734253 15 6 0
-0.26034578680992126 0.13619713485240936 0.014079184271395206 0 0 5
0.37278684973716736 -0.5081674456596375 0.7130510210990906 255 199 54
-0.37551453709602356 0.7349189519882202 -0.16586226224899292 58 64 85
-0.5670069456100464 -0.6486164927482605 -0.2657265067100525 39 21 16
-0.10953034460544586 -0.5311155319213867 0.8896336555480957 255 254 67
0.01885000802576542 0.2571074366569519 0.29157555103302 113 63 0
-0.31499069929122925 -0.5236902832984924 0.8596952557563782 255 254 92
-0.33183008432388306 -0.19614417850971222 -0.07553528249263763 3 0 0
0.6102100610733032 -1.1130285263061523 -0.2915877401828766 168 86 44
0.10456812381744385 -0.8755114674568176 -0.354148805141449 206 196 162
-0.635327160358429 -0.07746617496013641 -0.2431003302335739 0 0 0
0.19096076488494873 0.2954942286014557 -0.2067745178937912 1 0 4
-0.050041235983371735 -1.0391632318496704 -0.2887119948863983 90 90 81
-0.221786230802536 0.7653651833534241 0.39093637466430664 8 0 0
-0.18849672377109528 0.15076200664043427 -0.26864761114120483 50 41 32
-0.16161124408245087 0.8942673802375793 0.09276530891656876 114 100 29
-0.05733764171600342 -0.845057487487793 -0.32456475496292114 126 118 101
0.34106647968292236 0.7860297560691833 -0.021742556244134903 106 98 111
0.11780037730932236 0.6648454666137695 0.18121841549873352 128 81 8
-0.15754878520965576 -0.5559234023094177 0.6931123733520508 255 255 104
-0.33150774240493774 -0.11089428514242172 0.023043330758810043 0 0 5
0.18251803517341614 -0.17185838520526886 0.4008544981479645 155 127 42
-0.19565118849277496 0.22813761234283447 -0.05949300900101662 87 69 14
-0.5783935189247131 -1.1265251636505127 -0.2872070372104645 109 73 58
0.24918681383132935 0.040643248707056046 0.46997085213661194 254 210 65
0.2855578064918518 -1.128057599067688 -0.3120676875114441 254 233 185
-0.27754470705986023 0.6799903512001038 -0.018589986488223076 24 15 0
-0.27778276801109314 -0.4521443545818329 -0.35228869318962097 224 207 165
-0.27378854155540466 0.9355257153511047 -0.04724609851837158 68 73 90
0.04082711786031723 0.6432825326919556 -0.16373951733112335 85 68 0
0.1630459427833557 -0.7151792049407959 -0.29737788438796997 236 220 184
0.06066640466451645 0.9034039378166199 0.18329940736293793 101 98 31
0.15568940341472626 0.6131450533866882 0.19654422998428345 0 0 0
0.10959789156913757 0.8878867030143738 0.036196909844875336 106 99 31
-0.07015865296125412 0.19567710161209106 -0.2894000709056854 42 32 21
0.3592846989631653 -0.9941836595535278 -0.30364006757736206 255 229 175
0.5969796180725098 -1.0042331218719482 -0.30144280195236206 91 52 35
0.5987533926963806 -0.9525880217552185 -0.30086591839790344 61 42 40
-0.28476813435554504 -0.006531384773552418 0.041546780616045 7 5 4
0.023561717942357063 -1.136358618736267 -0.2872254550457001 242 223 183
-0.3514522612094879 -0.5324885249137878 0.7682469487190247 255 254 75
0.08037173002958298 1.1088318824768066 -0.3304068148136139 122 121 111
-0.15256106853485107 -0.5528470873832703 -0.3139171600341797 253 226 170
-0.10566296428442001 -0.35567981004714966 0.07440643012523651 170 162 169
0.04526098445057869 -0.19033773243427277 0.11523747444152832 154 102 25
-0.04819529876112938 0.003846079111099243 0.47671258449554443 150 112 23
0.19159086048603058 -0.12314730137586594 0.7396883964538574 144 114 33
-0.25466153025627136 0.9039049744606018 0.23007410764694214 99 95 35
-0.6047224402427673 -1.0307198762893677 -0.28669336438179016 24 4 0
-0.509482204914093 0.9380502700805664 -0.30475765466690063 57 66 64
-0.1769910454750061 -0.22055575251579285 -0.30540382862091064 35 22 0
-0.26679033041000366 0.11304772645235062 0.015162312425673008 2 2 6
0.3511335849761963 -0.1820727437734604 -0.033086858689785004 192 201 227
0.35461756587028503 -0.4964919090270996 0.7260116338729858 250 176 36
-0.18674682080745697 0.009078769944608212 0.22416912019252777 125 106 34
-0.3146614730358124 0.8483977317810059 -0.05968906730413437 0 0 7
-0.5762306451797485 -0.6424248814582825 -0.2631013095378876 0 0 0
-0.12345264852046967 -0.5374048948287964 0.895759642124176 255 254 73
-0.6062325239181519 -0.06435902416706085 -0.25477632880210876 20 13 10
-0.05952271819114685 -1.0348458290100098 -0.30902597308158875 30 39 43
0.03160760924220085 0.6863934993743896 -0.27890050411224365 87 98 93
-0.23814941942691803 0.7623991966247559 0.3750584125518799 0 0 0
-0.20261266827583313 0.21302808821201324 -0.2491195648908615 69 54 53
-0.16555853188037872 0.8381509184837341 0.045042939484119415 167 116 22
0.358113169670105 0.704866349697113 -0.0009922432946041226 126 118 142
0.08928421139717102 0.6371251940727234 0.18482792377471924 117 84 19
-0.17062103748321533 -0.559669554233551 0.688040018081665 255 254 102
-0.48482459783554077 0.10093691945075989 -0.3488408923149109 0 0 0
-0.3269506096839905 -0.08762405067682266 0.027343176305294037 0 0 0
0.24403420090675354 -0.20453442633152008 0.5139974355697632 163 128 32
-0.1858978271484375 0.1313917189836502 -0.08660370111465454 121 102 25
-0.6051903963088989 -1.1116490364074707 -0.2752668857574463 107 74 62
0.24943000078201294 0.05188502371311188 0.4664234220981598 254 208 65
0.06879203021526337 0.3494190275669098 -0.36661872267723083 1 0 0
-0.2651904821395874 0.6469647288322449 -0.047424640506505966 17 12 0
-0.21377915143966675 -0.49766626954078674 -0.34203991293907166 236 219 182
0.16979709267616272 0.6309745907783508 0.2970021665096283 1 15 66
0.04368375241756439 0.25591713190078735 -0.36423540115356445 74 57 30
0.15138977766036987 -0.739993155002594 -0.2985416650772095 237 220 181
0.06874510645866394 0.9126213788986206 0.18576809763908386 15 31 16
-0.3739149570465088 -0.13028453290462494 -0.008958643302321434 4 2 2
0.033028606325387955 0.8829838037490845 0.05620453506708145 106 97 24
-0.06886260956525803 0.22532854974269867 -0.3084027171134949 50 37 24
0.3532807528972626 0.5409431457519531 -0.2970143258571625 0 0 0
0.578727662563324 -1.0181772708892822 -0.3066367208957672 23 5 2
-0.1539323478937149 -1.0954957008361816 -0.2975308299064636 255 234 200
0.5940141677856445 -0.9240167140960693 -0.2890666425228119 24 8 0
-0.28743410110473633 0.0015799292596057057 0.03954574465751648 7 4 2
-0.030574414879083633 -1.136112928390503 -0.286934494972229 241 223 183
-0.3266777992248535 -0.5307655930519104 0.752348780632019 255 254 89
0.059472110122442245 0.3798057734966278 -0.2959093749523163 154 124 94
-0.3784410059452057 -0.5663827657699585 0.9929766654968262 255 254 79
-0.5909546613693237 1.145017147064209 -0.30762532353401184 57 36 27
0.5985235571861267 -1.126294493675232 -0.2870904505252838 155 101 73
0.2813965976238251 0.019436940550804138 0.196829155087471 209 215 238
0.20749762654304504 -0.4126361608505249 0.9288291931152344 0 2 10
-0.41068893671035767 -0.6419997215270996 -0.31112971901893616 82 78 75
-0.5553063750267029 -1.0334012508392334 -0.309847891330719 54 48 49
-0.25212687253952026 -0.18990014493465424 0.76453697681427 254 217 72
-0.42360401153564453 -0.3298088014125824 -0.3066648244857788 97 89 71
0.17027053236961365 -1.039801836013794 -0.30715054273605347 169 133 84
-0.17504817247390747 -0.5768360495567322 -0.3109266459941864 48 54 61
0.2158782184123993 -0.7272070050239563 -0.2968180477619171 235 220 181
-0.22600123286247253 -0.8594209551811218 -0.3015928864479065 230 216 178
0.027362892404198647 -0.6380663514137268 -0.2864086329936981 91 90 89
-0.30041226744651794 -1.1035656929016113 -0.30503615736961365 113 102 74
-0.15743860602378845 0.38610517978668213 0.4178082048892975 146 63 0
0.1121654063463211 -0.952855110168457 0.6371262073516846 255 229 60
0.2863330841064453 -0.4036749005317688 -0.2982035279273987 238 219 177
0.47348105907440186 -0.21474328637123108 -0.2985426187515259 232 215 175
-0.11487923562526703 0.7810594439506531 0.6703089475631714 255 214 68
0.35175102949142456 -0.5812280774116516 0.993358314037323 255 254 76
-0.6046820878982544 0.8041948676109314 -0.27275919914245605 118 82 64
0.3271045684814453 0.6989209055900574 0.03962798789143562 0 0 5
-0.27749013900756836 -0.5931073427200317 -0.3062765598297119 133 103 49
0.3750564754009247 -0.9420785307884216 0.6432785987854004 255 198 54
-0.37528741359710693 -0.8814676403999329 0.6306197047233582 255 114 30
0.17034833133220673 1.018729329109192 -0.021492108702659607 0 5 16
-0.5165979266166687 -0.8427590131759644 -0.28738486766815186 106 74 62
-0.1675841063261032 0.8740130662918091 0.6505435109138489 255 230 73
-0.3239372968673706 -0.9387101531028748 0.6426926851272583 255 198 53
-0.07188212126493454 -0.836936354637146 0.6391239166259766 255 194 44
0.24810890853405 -0.9527791738510132 0.6466349959373474 255 227 62
-0.24565982818603516 -0.8517748117446899 0.6445302963256836 255 215 39
-0.42639729380607605 -1.116446852684021 -0.30380919575691223 160 144 110
0.4702914357185364 0.10824253410100937 -0.2966095805168152 220 205 166
0.4874345064163208 0.740805983543396 -0.29716721177101135 232 217 178
-0.5385984778404236 0.9127981066703796 -0.29827016592025757 149 152 138
0.4115789830684662 0.7234415411949158 0.04991403594613075 36 38 43
0.3672214448451996 0.7384413480758667 0.045784398913383484 36 37 43
-0.2036474198102951 -0.7465004324913025 0.6658419370651245 255 241 76
0.5334383845329285 -0.3279961049556732 -0.30643871426582336 109 99 80
0.3726288378238678 -0.8618240356445312 0.6500994563102722 255 234 73
0.37685275077819824 -0.947190523147583 0.6518146991729736 255 191 51
-0.06983619928359985 -0.953597366809845 0.6381075978279114 255 231 62
-0.37925824522972107 -0.9061259627342224 0.6459404230117798 255 206 37
0.24879568815231323 -0.17442113161087036 0.7227465510368347 255 205 53
-0.3443189561367035 -0.7719691395759583 -0.3112984597682953 47 43 44
-0.12534889578819275 0.423628032207489 0.668999195098877 107 79 18
-0.2922803461551666 -0.6573878526687622 -0.3098216652870178 108 91 60
0.27553287148475647 -0.031100161373615265 0.20260462164878845 191 187 197
0.15631374716758728 0.8693792819976807 0.6486208438873291 255 234 72
-0.3455130457878113 -0.833971381187439 -0.3114246428012848 76 72 70
-0.02037922479212284 0.2655010223388672 0.4970752000808716 34 25 11
-0.06999461352825165 -0.42226642370224 0.943444013595581 80 91 121
0.40969979763031006 -0.6605570316314697 0.7317008376121521 255 174 46
-0.25058412551879883 0.35870927572250366 0.2918483018875122 0 0 2
0.6089170575141907 -1.1358267068862915 -0.3086015582084656 126 65 39
-0.167609304189682 0.5881102085113525 0.670693576335907 35 0 0
0.22960078716278076 0.41947421431541443 0.502409815788269 219 218 243
-0.09561657160520554 -0.35039806365966797 -0.30160534381866455 215 197 159
-0.4280593693256378 -0.8947951197624207 -0.31112900376319885 99 103 101
0.21503688395023346 -0.3947735130786896 0.8725093007087708 24 25 31
0.5450748801231384 -0.6140441298484802 -0.260814905166626 150 96 65
0.025975344702601433 0.5227566361427307 0.6713376641273499 120 70 32
0.4875596761703491 0.5426236391067505 -0.2990150451660156 206 191 154
0.1055934950709343 -0.5355522036552429 -0.2995586693286896 236 217 178
0.4062490165233612 -0.32867947220802307 -0.3088802397251129 109 94 70
0.4809975326061249 -0.96066814661026 -0.31274524331092834 67 52 34
-0.2223197966814041 -0.6001622676849365 -0.3104211091995239 117 68 1
0.09146748483181 0.8694533109664917 0.6819684505462646 255 233 73
0.4270024597644806 0.024241803213953972 0.0351642370223999 20 20 19
-0.4056664705276489 -0.4603058397769928 -0.3078922927379608 76 55 24
0.1892664134502411 -0.04566665366292 0.2972988188266754 77 33 0
0.6235891580581665 -0.7657479643821716 -0.33062243461608887 219 188 146
0.6302548050880432 -0.6399058103561401 -0.34226691722869873 239 206 161
0.31177085638046265 0.5064287781715393 0.24891777336597443 255 200 53
0.17189213633537292 0.5150511860847473 0.24713808298110962 179 175 192
0.6298630237579346 0.18650321662425995 -0.3419063985347748 237 204 159
0.3459014296531677 -1.0413028001785278 -0.29769226908683777 235 220 183
0.6241167187690735 -0.8919687867164612 -0.33345070481300354 228 195 152
0.6270861029624939 -0.7878032326698303 -0.33980607986450195 222 191 148
-0.1960216462612152 -0.19154728949069977 0.7628670334815979 255 224 64
0.623424768447876 -0.42473968863487244 -0.33122479915618896 234 201 157
0.31332820653915405 0.6143660545349121 0.25333651900291443 255 191 52
0.3122243583202362 0.52736496925354 0.2609362006187439 255 231 68
0.6222938299179077 -0.4037286937236786 -0.331470787525177 233 200 156
0.3087139427661896 0.4697865843772888 0.262557715177536 255 235 68
-0.33836570382118225 -1.111984133720398 -0.30031731724739075 255 227 196
0.19167885184288025 0.0334879532456398 0.47067782282829285 136 101 12
-0.09441477805376053 0.9537415504455566 0.06480283290147781 42 34 0
-0.12629373371601105 -0.007705499418079853 0.48778364062309265 208 179 61
-0.2770628035068512 0.9414830803871155 0.1565161794424057 72 87 121
0.6306061148643494 -0.8187390565872192 -0.342330664396286 230 198 154
0.5897332429885864 0.5419090986251831 -0.24677734076976776 114 79 65
0.6233909726142883 -0.951128363609314 -0.33426913619041443 233 201 157
0.6305568814277649 -1.0082836151123047 -0.34236645698547363 236 204 158
0.6256766319274902 0.604560911655426 -0.33675581216812134 224 191 150
0.39434367418289185 -0.3992860019207001 -0.31146344542503357 40 37 37
0.6289851665496826 0.5057888627052307 -0.26086142659187317 110 76 63
0.6305670142173767 -0.8491178154945374 -0.34254810214042664 233 201 158
0.2216815948486328 -0.6679503321647644 -0.3000277578830719 230 214 177
0.10615841299295425 -0.9244860410690308 0.6411396265029907 255 214 66
0.63032066822052 -1.0816941261291504 -0.3423197567462921 242 208 164
0.6303926706314087 -1.048532485961914 -0.3423740267753601 239 205 160
0.35711991786956787 0.7241876721382141 0.046291474252939224 25 27 29
0.22301611304283142 -0.7936234474182129 -0.2993769347667694 233 217 180
0.43461012840270996 0.06637109071016312 0.029866978526115417 29 31 38
0.4563608765602112 0.8708723187446594 -0.3114219009876251 51 52 46
0.3889754116535187 -0.7202222347259521 0.7992807030677795 255 230 62
-0.1880456805229187 0.8639454245567322 0.6358857154846191 104 92 26
-0.25044316053390503 -0.8945227861404419 0.6429511904716492 141 90 18
0.43880224227905273 0.5455664396286011 -0.2905826270580292 17 16 15
-0.1298624873161316 -0.8043341040611267 -0.28859803080558777 42 29 9
0.12933361530303955 0.4038342237472534 0.4825051426887512 123 48 0
0.16182532906532288 -0.3647288382053375 0.8343418836593628 108 96 88
0.2848860025405884 -0.6585829257965088 -0.29753509163856506 231 214 176
-0.09489846229553223 0.5746828317642212 0.6779141426086426 211 123 13
0.22081150114536285 0.9899880886077881 -0.29942673444747925 144 148 145
-0.3054691255092621 0.027429338544607162 0.17207400500774384 60 70 100
0.34551525115966797 -1.1295393705368042 -0.31188884377479553 247 227 183
0.37649422883987427 -0.551445484161377 0.6448951363563538 255 200 54
0.15626366436481476 0.6467344164848328 0.6705067157745361 137 107 39
-0.1524972766637802 -0.3963894248008728 -0.3074316382408142 84 59 24
0.46683916449546814 0.746088981628418 -0.3077883720397949 59 52 38
0.4057850241661072 -0.3942486643791199 -0.3098493218421936 110 94 70
0.054640159010887146 -0.4619643986225128 0.9238345623016357 179 191 220
0.23091115057468414 -0.9946252107620239 -0.30791082978248596 255 232 174
0.10929568111896515 -0.2547069489955902 0.20871201157569885 70 29 0
0.4247482419013977 -0.7848250865936279 -0.306248277425766 146 127 90
-0.4058298170566559 -0.5497423410415649 -0.3077409863471985 255 230 173
0.40214231610298157 1.0423299074172974 -0.29836225509643555 227 215 181
0.4631229639053345 0.18491648137569427 -0.312097430229187 5 17 35
0.21257662773132324 0.04544009640812874 -0.29904571175575256 22 4 0
-0.04672335833311081 -0.6012135744094849 -0.2707335948944092 236 220 182
0.5753055810928345 -1.1234596967697144 -0.30910012125968933 48 31 24
-0.28434303402900696 -0.5380334854125977 -0.2990717589855194 228 214 180
0.28222814202308655 -0.09417875856161118 0.5418492555618286 6 0 0
0.5451995730400085 1.0493969917297363 -0.29905006289482117 220 209 176
0.36073610186576843 -1.0387884378433228 -0.3071877956390381 150 127 90
0.412528932094574 -0.6669070720672607 -0.2994479238986969 228 213 177
0.3703148663043976 -0.5881432890892029 0.7334105372428894 255 197 53
0.29263240098953247 0.6753636002540588 0.2642761766910553 255 254 65
0.07978326827287674 0.7494521737098694 0.6861134767532349 255 236 76
0.4740489721298218 -0.405523419380188 -0.29852673411369324 231 215 177
-0.2943601906299591 0.6371253728866577 0.27681413292884827 154 240 140
0.25682389736175537 0.00023976113880053163 0.04159965366125107 2 2 9
0.3690776228904724 0.8506684899330139 -0.04813786596059799 3 0 0
-0.21960432827472687 -0.5339470505714417 -0.2984474301338196 231 216 179
0.2774296700954437 0.02369695156812668 0.2032887190580368 176 175 191
0.5746105313301086 -0.5229300856590271 -0.259794682264328 156 105 78
-0.6184081435203552 -1.1080756187438965 -0.27715831995010376 6 3 6
-0.6244666576385498 0.2524661123752594 -0.3013646900653839 35 22 21
-0.1331597864627838 -0.4480994641780853 0.9060394763946533 165 174 203
0.2557854950428009 0.19854658842086792 0.002717951312661171 0 0 12
-0.241994708776474 -0.7805768251419067 0.6678496599197388 255 241 69
-0.1448342204093933 -0.41340896487236023 0.9353649020195007 195 199 214
-0.15219201147556305 0.6074591279029846 0.6635937094688416 255 234 71
0.36514416337013245 0.3348669111728668 -0.020381150767207146 0 1 0
0.07063958793878555 0.8880029320716858 0.015732277184724808 101 95 33
-0.30973586440086365 -0.6980370879173279 0.6509941816329956 254 179 0
-0.16656534373760223 0.04562496021389961 -0.15270762145519257 68 56 43
0.6247662305831909 0.7517428398132324 -0.3246966004371643 222 192 150
0.18663859367370605 0.680819571018219 0.18275777995586395 0 0 0
0.37230148911476135 -0.18418391048908234 -0.20893879234790802 0 0 0
0.36498311161994934 0.09621305018663406 0.012116612866520882 10 8 8
0.18596191704273224 -0.34697434306144714 0.4788213074207306 240 173 44
-0.3292636573314667 0.11866352707147598 -0.29111915826797485 3 3 3
0.18397316336631775 0.8599451184272766 0.5808281898498535 196 201 254
-0.11797306686639786 -0.09789755940437317 -0.31895825266838074 86 79 67
-0.12737727165222168 0.2671159505844116 0.2183731496334076 35 10 0
-0.014910046011209488 -0.43056556582450867 0.9049579501152039 1 1 0
-0.2678409218788147 0.8018854260444641 -0.16429615020751953 118 90 11
-0.16323156654834747 -0.5223714113235474 0.8728464841842651 254 121 0
-0.3317257761955261 0.7357276082038879 -0.1707473248243332 0 0 46
0.5110689997673035 -0.7837790250778198 -0.29929426312446594 48 29 18
0.23335663974285126 -0.7235138416290283 -0.2985852360725403 236 220 182
-0.22422532737255096 -1.0436996221542358 -0.2992591857910156 232 217 182
0.40961095690727234 -1.0477724075317383 -0.30983400344848633 218 163 81
0.3665004372596741 0.6857698559761047 0.04390767961740494 39 38 39
-0.2649092674255371 -0.6347002983093262 0.6470295786857605 255 254 68
0.22254788875579834 0.7618613243103027 0.3927004635334015 32 36 47
0.4671648144721985 0.10974548757076263 -0.30585646629333496 8 2 0
-0.0037947155069559813 -0.5648621916770935 0.6562900543212891 255 255 79
0.04652557894587517 0.9026646614074707 0.6701487898826599 255 232 71
-0.17189843952655792 0.43974176049232483 0.6276806592941284 255 245 73
-0.2688204348087311 -0.5365260243415833 0.8921200633049011 255 220 57
0.14393724501132965 -0.4320426285266876 0.9266993999481201 200 209 233
0.06800735741853714 -0.4559689164161682 0.9230777621269226 203 213 242
0.21066716313362122 -0.9902054667472839 -0.2977031469345093 235 221 185
-0.40138691663742065 -0.5426448583602905 -0.30837854743003845 254 211 137
0.6216576099395752 -0.5608606934547424 -0.2541239857673645 0 0 7
-0.09767497330904007 0.8359236717224121 0.18101409077644348 91 63 6
0.40770044922828674 1.0447431802749634 -0.2995198369026184 227 214 179
0.4815317392349243 0.18118725717067719 -0.3063667118549347 23 21 20
0.22678092122077942 -0.01591799221932888 -0.3221031129360199 33 17 0
-0.029930317774415016 -0.5874626040458679 -0.2722485065460205 238 223 185
0.6087333559989929 -1.1355059146881104 -0.28739190101623535 155 103 76
-0.0925968810915947 0.8482399582862854 0.6712550520896912 255 230 69
0.28643128275871277 -0.06328369677066803 0.4947090148925781 0 0 0
0.3685885965824127 -0.6089088320732117 0.7389296889305115 255 198 66
0.12161103636026382 -0.21454299986362457 -0.04978327825665474 255 185 46
0.48220834136009216 -0.3980209529399872 -0.29804331064224243 236 220 181
0.25639912486076355 0.015184189192950726 0.03867790848016739 1 2 10
0.2848207652568817 -0.049177370965480804 0.04725458845496178 31 25 20
-0.2243899554014206 -0.5564023852348328 -0.3120619058609009 254 228 177
0.5737239122390747 -0.5402157306671143 -0.25970032811164856 143 95 69
-0.1281442791223526 0.4059283435344696 0.5945512056350708 102 35 0
0.25584855675697327 0.2234407514333725 -0.00046198011841624975 3 2 12
0.3270929753780365 0.28849759697914124 -0.02708829939365387 0 0 16
-0.23474779725074768 -0.7682163119316101 0.6685518622398376 255 235 69
0.37121158838272095 -0.026964275166392326 -0.1713607758283615 166 151 158
-0.17644372582435608 0.999036431312561 -0.34744593501091003 120 122 111
-0.15855161845684052 0.6224693059921265 0.68155437707901 255 234 75
0.36236098408699036 0.3108101189136505 -0.014892962761223316 6 3 0
0.16948625445365906 0.8835694789886475 0.06227359548211098 95 92 11
-0.03221375122666359 -0.012122436426579952 0.23472221195697784 41 21 0
0.6297352313995361 0.973052978515625 -0.34209784865379333 237 207 162
0.08283686637878418 0.35124629735946655 0.18667899072170258 177 127 44
0.6296083927154541 0.9586436152458191 -0.34220555424690247 240 208 162
-0.24762871861457825 -0.6623367667198181 0.64370197057724 254 112 0
-0.1515246480703354 0.19588425755500793 -0.17905159294605255 18 15 0
0.16871659457683563 -0.9935612082481384 -0.3076493442058563 255 232 176
0.6243343949317932 0.8081790208816528 -0.3243929147720337 231 200 157
0.1583494395017624 0.6824209094047546 0.13233815133571625 0 0 23
0.3716381788253784 -0.12074556201696396 -0.09182330965995789 145 137 150
0.18038496375083923 -0.3189675509929657 0.4680720865726471 253 172 38
0.21181620657444 0.28920379281044006 0.22337926924228668 187 97 0
0.18565981090068817 0.8330086469650269 0.580171525478363 133 140 219
-0.1560003161430359 -0.03940732032060623 -0.3016852140426636 101 81 62
0.417731910943985 -1.1246087551116943 -0.3031809329986572 255 228 178
0.17102205753326416 0.5391733050346375 0.2901698648929596 227 220 237
0.06767155975103378 -0.9168802499771118 0.644690990447998 134 92 21
-0.2518656253814697 0.7273204326629639 -0.128504678606987 154 128 26
0.1599331647157669 0.5261804461479187 0.6214028596878052 69 35 0
-0.31078627705574036 0.7278265953063965 -0.12751664221286774 0 0 2
0.5402024984359741 -0.7231287956237793 -0.29416424036026 15 0 0
0.23087219893932343 -0.7410404682159424 -0.3054388761520386 255 227 172
0.0969138965010643 0.49573615193367004 0.6816295981407166 255 232 75
-0.2271469384431839 -1.0506725311279297 -0.30214613676071167 232 216 180
0.06379779428243637 -0.024417687207460403 -0.31195268034935 24 14 6
0.13991351425647736 0.8634014129638672 0.31131941080093384 117 67 0
0.3684673309326172 0.6825278401374817 0.01889733597636223 1 5 2
0.47196224331855774 0.12463357299566269 -0.312193900346756 31 36 42
-0.0052668810822069645 -0.5497729778289795 0.674260139465332 255 254 74
-0.29206401109695435 -0.5565866231918335 0.8559096455574036 255 254 1
-0.36575111746788025 -0.5822216868400574 0.9836727380752563 255 254 76
-0.24182385206222534 0.3440273702144623 0.2937576472759247 248 245 243
-0.2903406023979187 -0.5146569013595581 0.9222086071968079 143 130 43
-0.31647199392318726 0.4691028892993927 0.21406129002571106 254 227 59
-0.38154399394989014 -0.9500647783279419 0.6453853845596313 0 0 0
-0.25316816568374634 0.8590607047080994 0.19918464124202728 140 172 191
-0.12540283799171448 -0.34438183903694153 0.013262273743748665 78 82 98
-0.2531035542488098 -0.43453869223594666 0.8929798007011414 78 77 99
-0.41462668776512146 -0.6044116020202637 -0.29987260699272156 229 214 179
-0.6327154040336609 1.146034836769104 -0.330926775932312 111 113 104
-0.189619243144989 0.6187834739685059 0.6506048440933228 77 91 0
0.24573609232902527 -0.19062072038650513 0.7638970613479614 254 230 68
0.5996406674385071 1.1444766521453857 -0.30724290013313293 57 35 26
0.19292165338993073 -0.9019409418106079 0.6541038155555725 255 235 74
0.37228330969810486 -0.513774573802948 0.8513395190238953 255 199 52
-0.02638857439160347 -0.644453227519989 -0.28641289472579956 46 45 52
-0.2747483253479004 -0.785796582698822 -0.30521559715270996 171 143 92
0.46399855613708496 0.9369573593139648 -0.306149959564209 125 116 89
-0.2963811755180359 -1.0552648305892944 -0.29802206158638 237 223 187
-0.37872955203056335 -0.9192977547645569 0.6431480050086975 102 90 26
-0.09272543340921402 0.6375460028648376 0.6780410408973694 115 120 4
-0.18909403681755066 0.5986531972885132 0.6512634754180908 104 93 28
0.4880692958831787 0.9951009154319763 -0.3074956238269806 142 124 86
-0.3798092305660248 -0.8507001399993896 0.6496886014938354 255 233 72
0.061241526156663895 0.9038097262382507 0.6373001337051392 91 48 0
-0.12549234926700592 -0.33447548747062683 -0.02519650012254715 80 82 97
-0.21415673196315765 -0.15277549624443054 0.7211565971374512 54 20 0
-0.12568876147270203 -0.3489226996898651 0.06409342586994171 72 76 91
0.5454457998275757 1.0662457942962646 -0.2969958782196045 246 234 197
0.2479478418827057 -0.8981819748878479 0.6476452946662903 255 194 49
0.4762131869792938 1.114708662033081 -0.3006645441055298 227 215 180
-0.3804188668727875 -0.5786570310592651 0.7299792170524597 254 148 34
-0.10668119043111801 -0.9283162355422974 -0.30509284138679504 169 149 107
0.08717954158782959 0.8401650786399841 0.6708361506462097 138 103 44
-0.3961517810821533 0.8035414218902588 0.027303198352456093 29 36 48
-0.3753899037837982 -0.12938910722732544 -0.2626006007194519 0 0 3
-0.15880976617336273 0.8622235059738159 0.4180868864059448 113 74 0
-0.15250897407531738 0.8094136118888855 0.6494621634483337 255 222 69
0.17492860555648804 -0.18637266755104065 0.7271246314048767 91 108 140
-0.09465697407722473 -0.9530161619186401 0.6366528868675232 255 230 63
-0.3803413212299347 -0.9245119094848633 0.6548505425453186 255 232 73
0.24738453328609467 -0.14298194646835327 0.6945653557777405 255 205 55
0.37581291794776917 -0.5396856069564819 0.9609127044677734 255 205 56
-0.09643995761871338 0.766086757183075 0.6778466701507568 193 133 25
0.1776372790336609 0.8747924566268921 0.6506238579750061 255 244 76
-0.5442038774490356 -0.42313066124916077 -0.2750113010406494 119 86 72
0.6103373765945435 1.0061283111572266 -0.26142680644989014 157 107 81
0.2209012359380722 0.8511599898338318 0.3777731955051422 221 213 224
-0.1252821683883667 0.7924972772598267 0.6725751161575317 255 235 75
-0.12423694878816605 0.4052955210208893 0.6581166982650757 255 219 57
0.24689820408821106 -0.12365631759166718 0.7417623996734619 255 223 79
0.3573773205280304 -0.18713614344596863 -0.03185354545712471 30 26 23
-0.36336296796798706 -0.4647082984447479 -0.29638931155204773 229 215 179
0.30050766468048096 -0.03176165744662285 0.47411930561065674 150 144 161
-0.3724999725818634 -0.08307813107967377 -0.2645205557346344 0 0 1
0.4148704409599304 0.533850908279419 0.008529189974069595 9 10 12
0.24811482429504395 -0.13574348390102386 0.7059065699577332 33 4 0
0.48839879035949707 0.9253252148628235 -0.2984842360019684 229 218 184
-0.10721614956855774 -0.33712777495384216 -0.29677197337150574 219 202 162
-0.034653063863515854 0.16703221201896667 0.30178090929985046 193 166 58
-0.08566237986087799 -0.37757664918899536 0.26657941937446594 25 22 27
-0.11665167659521103 0.9665228724479675 0.06403197348117828 86 97 124
0.06227264553308487 -0.42183202505111694 0.936117947101593 102 115 146
0.1269095242023468 -0.42174017429351807 0.920730471611023 0 1 16
-0.35904571413993835 -0.674104630947113 -0.3061412274837494 181 154 101
0.6023204326629639 1.11300528049469 -0.2755998969078064 151 103 79
0.30398377776145935 -0.19588196277618408 0.6644313931465149 117 132 163
-0.49286964535713196 -0.4084944725036621 -0.2985086739063263 234 221 184
-0.3039078712463379 1.1280367374420166 -0.3151341378688812 80 90 87
0.3576878607273102 -0.7932374477386475 0.7250965237617493 255 255 76
-0.6342766284942627 1.13295578956604 -0.3424304127693176 96 96 90
-0.3504079580307007 -1.1283472776412964 -0.31214919686317444 255 231 184
-0.23315022885799408 0.9382367730140686 0.18632005155086517 87 107 150
-0.09616071730852127 0.8941493034362793 0.670699417591095 136 111 23
-0.04655540734529495 -0.9230199456214905 -0.28374698758125305 111 101 75
0.5943266153335571 1.103935956954956 -0.2801280915737152 103 57 28
-0.3443453907966614 1.1452513933181763 -0.3421700596809387 114 117 107
-0.18822352588176727 0.8735644221305847 0.617178201675415 107 96 28
-0.02821141853928566 0.9062530398368835 0.6518043279647827 121 111 32
0.17036113142967224 0.8826895356178284 0.6504545211791992 0 0 0
-0.25361645221710205 -0.18837982416152954 0.7545465230941772 76 69 20
-0.3777359127998352 -0.8571829795837402 0.6370320320129395 102 90 25
0.15514160692691803 0.7447618246078491 0.6806520819664001 255 233 76
-0.23256143927574158 -0.4844229817390442 -0.3057679533958435 193 172 126
0.17714352905750275 -0.35546961426734924 0.847062885761261 122 119 142
-0.1067708358168602 -0.2591584622859955 -0.3113720715045929 47 32 28
0.22842465341091156 -0.436465859413147 0.9162891507148743 197 208 240
0.22077684104442596 0.9897736310958862 -0.29875296354293823 122 120 108
-0.3050263822078705 0.9417506456375122 -0.014136443845927715 55 57 66
-0.304644912481308 -0.0038691475056111813 0.18702295422554016 73 87 120
0.12092816829681396 0.9072759747505188 0.6293010711669922 0 28 17
0.37708020210266113 -0.5392006635665894 0.6617913842201233 255 199 53
0.18434591591358185 0.8740615844726562 0.3524854779243469 140 113 16
0.16170582175254822 0.637926459312439 0.6782781481742859 207 139 23
-0.1894022673368454 0.5424469113349915 0.6619454026222229 101 90 26
-0.6113537549972534 -1.0957530736923218 -0.2721390426158905 118 83 69
-0.11019797623157501 0.9010564088821411 0.6696482300758362 255 186 38
0.4024040699005127 -0.7973963618278503 -0.3061898350715637 191 170 124
-0.4094370901584625 -0.7955756187438965 -0.3006535768508911 228 215 183
0.3782488703727722 -0.6623184680938721 0.883805513381958 255 195 51
-0.41930004954338074 -0.9211194515228271 -0.2989577054977417 231 216 180
0.2988172769546509 0.004433247726410627 0.4535246193408966 229 234 254
-0.3152427077293396 0.47066134214401245 0.16452981531620026 101 90 26
0.06881431490182877 0.7477303743362427 0.6673798561096191 255 211 66
-0.33031800389289856 0.05591863766312599 0.029919177293777466 10 9 9
0.5544769763946533 1.1036630868911743 -0.3090672492980957 215 196 153
-0.10508526116609573 0.5731970071792603 0.6861299276351929 255 235 76
0.08413490653038025 0.9066298007965088 0.6681313514709473 255 207 75
-0.28280937671661377 0.8781704306602478 -0.07659175992012024 1 2 6
-0.5344940423965454 1.1276541948318481 -0.29791077971458435 221 228 215
0.03181637451052666 -0.45194941759109497 0.9204268455505371 6 1 0
-0.09526363760232925 0.9710363149642944 -0.34509092569351196 82 94 95
-0.43432262539863586 -0.057042255997657776 -0.2893292307853699 0 0 1
-0.4298272728919983 0.45302116870880127 -0.2908203601837158 0 0 1
-0.23119141161441803 0.8681287169456482 0.36162039637565613 57 67 86
-0.1545839160680771 0.6146885752677917 0.6699302792549133 255 254 47
-0.3784763514995575 -0.4856409728527069 0.8019344806671143 138 127 43
-0.12115288525819778 0.8162760734558105 0.16437682509422302 88 38 0
-0.06569099426269531 -0.8213430047035217 0.6684539914131165 255 239 67
-0.3304424285888672 0.8063288331031799 5.099513873574324e-05 0 5 25
-0.023642728105187416 -0.8782852292060852 -0.3638581931591034 189 165 123
-0.0038507424760609865 0.15023523569107056 -0.005370341241359711 56 57 88
-0.40643131732940674 -0.06638722121715546 -0.31838756799697876 39 36 28
-0.23099210858345032 -0.5335801243782043 0.7037048935890198 255 254 96
-0.16651690006256104 0.9491914510726929 0.06819511950016022 98 118 159
0.25035426020622253 -0.007296224590390921 -0.3299536108970642 157 111 67
-0.16861195862293243 0.7268997430801392 0.0759848952293396 0 0 0
-0.3211827874183655 0.06241455301642418 -0.31841757893562317 16 17 29
0.020666902884840965 0.2959733009338379 0.035450857132673264 0 0 5
-0.07309532165527344 0.5476287603378296 0.09950396418571472 27 18 0
0.3388240933418274 -0.13286025822162628 -0.3211659789085388 8 0 0
-0.3690507709980011 -0.18410781025886536 -0.07889444380998611 0 0 0
-0.12071119993925095 0.9026130437850952 0.6675511598587036 255 208 59
0.22064685821533203 1.1194796562194824 -0.3132418096065521 46 40 22
-0.5791469216346741 -1.0782276391983032 -0.2873116135597229 107 74 61
-0.2751792073249817 -1.0538840293884277 -0.30268383026123047 255 230 185
-0.00279904599301517 0.41273701190948486 0.6701030731201172 255 233 72
0.37811708450317383 -0.6509625315666199 0.898826539516449 255 190 50
0.21983200311660767 -0.9770353436470032 -0.29706811904907227 236 222 186
-0.09121666103601456 0.6345222592353821 0.26762303709983826 146 100 21
0.2908882796764374 0.007484513334929943 0.45850759744644165 235 240 254
-0.314449667930603 0.4816952645778656 0.22400911152362823 100 88 25
0.09764789789915085 0.757419764995575 0.6501395106315613 255 219 0
-0.32728397846221924 0.04845986142754555 0.019220957532525063 0 0 0
0.5555943250656128 1.074841022491455 -0.3124867081642151 204 191 157
0.04612336680293083 0.896514892578125 0.6709139347076416 255 226 67
-0.26286256313323975 0.8754606246948242 -0.07761114090681076 0 0 0
-0.41725611686706543 -1.1220344305038452 -0.3002929985523224 233 220 187
-0.2829993963241577 -0.07988148927688599 0.511691153049469 24 15 0
0.14471346139907837 -0.1532737761735916 0.72664475440979 120 137 174
-0.3334410786628723 -0.048070017248392105 0.037509553134441376 0 0 11
-0.06903161853551865 0.9935782551765442 -0.3404711186885834 74 85 84
-0.4175627827644348 -0.055760983377695084 -0.28997308015823364 0 0 2
-0.44258248805999756 0.47976458072662354 -0.29347333312034607 0 0 2
-0.44279345870018005 0.10256695747375488 -0.293316125869751 0 3 6
-0.3785693943500519 -0.4995358884334564 0.8449313640594482 118 108 35
-0.11750022321939468 0.8700973391532898 0.11301220953464508 101 65 7
-0.0758277103304863 -0.8189934492111206 0.6724178194999695 255 228 70
-0.3191892206668854 0.8061184883117676 -0.06051630526781082 13 1 0
-0.005155207123607397 -0.9557722806930542 -0.35550618171691895 183 167 133
0.03668219596147537 0.08495461940765381 0.0007982960087247193 68 71 90
0.16555365920066833 0.7386706471443176 0.6744359135627747 255 255 59
-0.05607064440846443 0.34049710631370544 0.1533147096633911 158 166 137
0.11681114882230759 0.007951761595904827 0.4834839105606079 169 151 56
-0.15923164784908295 0.9546179175376892 0.06311609596014023 97 116 151
0.3599407970905304 -0.6127862930297852 0.9215239882469177 174 91 0
-0.08542349934577942 0.40224316716194153 0.13985568284988403 66 48 1
-0.3586663007736206 0.04666673019528389 -0.32389914989471436 0 0 0
0.25921431183815 -0.04887876287102699 -0.28214555978775024 0 0 0
0.2917749583721161 0.7523916363716125 -0.18788602948188782 31 33 48
-0.37621453404426575 -0.1978740245103836 -0.08010078221559525 0 0 0
0.462137907743454 -1.1057512760162354 -0.2971494793891907 236 222 185
0.2096656858921051 1.1128685474395752 -0.3062532842159271 35 32 21
-0.6327208280563354 -1.127197265625 -0.29149264097213745 30 21 22
-0.257746160030365 -0.07456405460834503 -0.33973008394241333 79 73 61
-0.12401673197746277 0.0976400151848793 -0.29920437932014465 1 5 6
0.2068997174501419 1.0024745464324951 -0.30754679441452026 64 74 71
-0.29805728793144226 0.3853168189525604 0.25182247161865234 185 200 229
-0.35717931389808655 -0.5781187415122986 0.9731782078742981 255 207 52
-0.3668029308319092 -0.811548113822937 0.6970584988594055 255 255 76
-0.3818035125732422 -0.5864846706390381 0.9849898219108582 255 255 73
-0.18932770192623138 0.37807607650756836 0.4226633608341217 255 237 65
0.40491923689842224 -0.6478238701820374 -0.3120327889919281 80 64 45
