ply
format ascii 1.0
element vertex 684
property float x
property float y
property float z
property uint8 red
property uint8 green
property uint8 blue
end_header
0.26579397916793823 0.6858481168746948 0.22940483689308167 125 82 17
-0.16666996479034424 -0.16304977238178253 0.41170015931129456 185 168 57
-0.3097599148750305 0.11518474668264389 -0.1595488339662552 37 22 0
0.317952036857605 -0.33002984523773193 -0.310515433549881 233 214 172
-0.26052626967430115 -0.035127751529216766 0.0457402765750885 1 0 5
0.07279863953590393 0.8029563426971436 0.5842189788818359 105 63 5
-0.5388411283493042 0.589685320854187 -0.27583181858062744 55 31 19
0.22530525922775269 0.3386753499507904 -0.09566198289394379 191 130 17
-0.22708125412464142 0.8448824882507324 0.1426248699426651 91 82 23
-0.3413355052471161 0.8606025576591492 -0.034220900386571884 5 5 6
0.2698479890823364 -0.9837477207183838 -0.30665507912635803 113 99 69
-0.06418716162443161 0.07051444798707962 0.20574480295181274 80 61 10
0.3663851320743561 -0.05690104886889458 -0.3344532251358032 1 2 5
-0.37523841857910156 -0.0019490693230181932 -0.1203584298491478 57 66 90
0.16961105167865753 0.9368221163749695 -0.3037544786930084 136 128 107
-0.40093621611595154 0.35427945852279663 -0.0120151462033391 8 8 7
0.3075878918170929 0.4900919497013092 -0.13497449457645416 236 158 33
-0.3753683865070343 0.0431242361664772 -0.06560611724853516 64 73 102
-0.3626207411289215 0.7354028820991516 -0.0691545233130455 25 37 58
0.10438001900911331 0.34054213762283325 -0.19230276346206665 33 0 0
-0.44297993183135986 0.641089677810669 0.03318818286061287 11 11 15
-0.6336094737052917 0.12766873836517334 -0.30684757232666016 30 19 15
-0.3764623701572418 0.4682466983795166 -0.0029344833455979824 54 72 105
-0.15737468004226685 -0.5488781929016113 0.985546350479126 254 193 55
0.28756341338157654 -1.1353912353515625 -0.312463641166687 241 223 183
-0.22393402457237244 -0.5619633197784424 0.9921421408653259 255 252 79
-0.6212139129638672 1.0921733379364014 -0.299100786447525 47 31 25
-0.33731767535209656 -0.767239511013031 -0.3123754858970642 251 233 190
-0.27784430980682373 0.9788498878479004 -0.3491683900356293 96 98 89
0.10255391150712967 -0.7022751569747925 0.6529875993728638 254 56 0
0.2562861144542694 -0.5503445863723755 0.9586344957351685 254 94 0
-0.31497710943222046 -0.752164900302887 0.6510859727859497 253 55 0
-0.03786701709032059 0.7455172538757324 -0.04695112630724907 47 34 0
-0.19739562273025513 0.032741159200668335 0.3297712802886963 190 148 33
0.37328603863716125 0.6080999970436096 -0.16857461631298065 150 144 158
-0.6336323618888855 0.10863736271858215 -0.3069510757923126 30 18 15
0.2908549904823303 -0.7195690274238586 0.6484304070472717 255 220 64
-0.3373865485191345 0.7700839042663574 0.03787282109260559 0 0 0
-0.09259852021932602 0.8143983483314514 0.19115467369556427 138 95 11
0.10314760357141495 0.3991851806640625 -0.17150205373764038 210 159 20
-0.3754630386829376 0.7388482689857483 -0.06768299639225006 64 73 99
-0.3651670515537262 0.7300241589546204 -0.27974098920822144 0 1 3
0.3055543899536133 0.372897744178772 -0.17926433682441711 222 161 40
-0.1128232479095459 -0.45751267671585083 0.6714664101600647 90 65 5
0.31424587965011597 -0.7315841317176819 0.6629387736320496 59 14 0
-0.31212541460990906 0.5484638214111328 0.014167875051498413 39 27 2
0.303340345621109 -0.5322077870368958 0.9335918426513672 150 130 44
0.5974952578544617 0.7237818241119385 -0.2731553614139557 152 103 77
-0.04411240294575691 0.20993196964263916 0.19319342076778412 29 4 0
-0.09404908865690231 0.5831643342971802 0.1677251011133194 80 64 11
-0.2720341980457306 0.8649248480796814 -0.36469176411628723 63 85 96
0.24810458719730377 -0.6986259818077087 0.651498019695282 255 217 61
-0.6201656460762024 0.07662416994571686 -0.286078542470932 71 55 53
0.22050940990447998 0.9819885492324829 -0.29812759160995483 128 125 111
-0.37886738777160645 0.6975206732749939 -0.11283807456493378 64 75 103
-0.5282756090164185 0.417681485414505 -0.2862185537815094 13 1 0
-0.408854603767395 0.6844730973243713 0.04509832337498665 32 36 39
0.31153014302253723 0.4316747486591339 -0.18824175000190735 242 174 36
-0.10109493136405945 0.21984077990055084 -0.1018853485584259 85 62 14
-0.37518471479415894 0.6775199174880981 -0.1132267564535141 64 72 96
-0.06752188503742218 0.1794722080230713 -0.07744427770376205 51 5 0
-0.5174808502197266 0.07948698103427887 -0.2888690233230591 57 44 40
0.12867139279842377 -0.41524091362953186 0.9349647760391235 63 73 99
0.5908378958702087 -0.543445348739624 -0.24683862924575806 159 108 79
-0.18581008911132812 0.7740573287010193 0.6699659824371338 255 221 69
0.08145890384912491 0.4421915113925934 0.6791558265686035 186 113 8
0.01608322188258171 0.4379768967628479 0.6794844269752502 189 119 12
0.06093791872262955 0.20696213841438293 0.19900955259799957 193 127 25
0.055969588458538055 -0.5945892930030823 -0.2858060598373413 238 220 179
0.06149597838521004 -0.7849270105361938 0.6689476370811462 255 232 69
0.33257660269737244 -0.38248953223228455 -0.2961936891078949 224 204 164
0.0857463926076889 -0.5118092894554138 -0.30604857206344604 203 167 116
-0.264800488948822 0.7726282477378845 0.032322611659765244 0 0 3
-0.36559954285621643 0.6796826720237732 -0.3350069224834442 80 102 106
-0.3652949333190918 -0.6019164323806763 0.9266119003295898 255 170 29
0.023365823552012444 -0.5749692916870117 -0.28656256198883057 103 100 95
0.20368723571300507 -0.7821240425109863 0.6506021022796631 254 110 0
0.3516966998577118 0.7261777520179749 -0.24730141460895538 148 133 141
-0.2602608799934387 0.005013817455619574 0.04078765586018562 0 0 4
-0.05087808892130852 -0.5025716423988342 0.6885348558425903 136 99 24
0.17970754206180573 0.6366965174674988 0.28192996978759766 160 151 162
-0.18178637325763702 -0.36821115016937256 -0.3210834264755249 224 207 169
-0.3001438081264496 -0.5268582105636597 0.8563764691352844 119 109 48
0.25913962721824646 -0.07706765085458755 0.03928512707352638 1 1 1
0.17683793604373932 -0.18433840572834015 0.7266812324523926 77 97 144
0.23274670541286469 -0.7043874859809875 0.6485773921012878 176 58 0
-0.19789808988571167 -0.5290553569793701 0.6735060811042786 181 153 30
0.4057384729385376 0.48954591155052185 -6.582036439795047e-05 21 22 17
-0.314285546541214 -0.5498706698417664 0.9838093519210815 144 128 40
0.3393779993057251 -1.1304010152816772 -0.3125686049461365 237 220 179
0.16882403194904327 0.6514137983322144 0.6696956753730774 255 234 71
-0.2887382209300995 -0.5301933288574219 0.9708004593849182 149 137 53
-0.2584771513938904 -0.5315854549407959 0.9329723119735718 140 128 41
0.2685976028442383 -0.5020504593849182 0.8599688410758972 83 55 1
0.03632958233356476 0.8087595701217651 0.18805818259716034 153 87 0
-0.2144603282213211 -0.5523108839988708 0.9983105659484863 255 254 81
0.19619378447532654 1.02604079246521 -0.3106710910797119 126 124 113
0.09045860916376114 -0.40809813141822815 0.9177029728889465 0 0 0
0.33011722564697266 0.010555322282016277 0.03939038887619972 23 25 28
-0.29417550563812256 0.8847421407699585 -0.14456720650196075 6 8 13
-0.26896536350250244 0.5534075498580933 -0.0025583836250007153 5 4 2
-0.4427696168422699 0.3846067786216736 -0.010108075104653835 4 4 8
0.26122936606407166 -0.2863468527793884 -0.3110826909542084 183 158 119
-0.27685022354125977 0.7281247973442078 -0.28737351298332214 1 0 0
-0.0955536812543869 0.3152042329311371 -0.171665221452713 0 0 0
0.018950145691633224 0.5734480023384094 0.26899203658103943 149 70 0
0.11310269683599472 0.8106516003608704 0.172552689909935 211 139 20
0.14258097112178802 -0.711033046245575 -0.310747355222702 79 74 68
0.602349579334259 -0.5412766337394714 -0.3044959008693695 44 28 25
0.02176336571574211 -0.7200290560722351 0.6453191637992859 254 109 0
0.15250679850578308 0.5374405384063721 0.3148494362831116 145 139 164
0.31334567070007324 -0.19625374674797058 0.6626132726669312 166 162 179
0.26834309101104736 0.1869390606880188 -0.06873197108507156 148 95 9
0.47549697756767273 -1.128676176071167 -0.3108302652835846 254 233 186
-0.08749709278345108 -0.24561206996440887 0.1211949810385704 53 20 0
-0.3731871247291565 0.2304692268371582 -0.019705994054675102 2 8 16
0.3176179826259613 0.7659410238265991 -0.18407705426216125 51 57 75
-0.3773641288280487 0.6729263663291931 -0.21354740858078003 64 75 103
-0.3720755875110626 0.3036917448043823 -0.028036803007125854 0 6 16
0.1282510906457901 0.5716328024864197 -0.12353573739528656 72 33 5
0.32667726278305054 0.28971707820892334 -0.024852890521287918 0 0 14
-0.3109976053237915 0.14765773713588715 -0.3882330060005188 21 20 16
-0.543603241443634 0.8161256313323975 -0.28457820415496826 25 20 21
-0.02757628820836544 0.3551909923553467 -0.17734642326831818 6 0 0
-0.3062007427215576 0.06924275308847427 -0.30234718322753906 26 25 22
0.1533745527267456 -0.28220605850219727 0.8013606667518616 2 1 0
-0.21155744791030884 0.3004385530948639 -0.3263227939605713 0 0 0
-0.12732410430908203 -0.6567549705505371 -0.29477131366729736 118 107 85
-0.2775014638900757 -0.04236498847603798 -0.09877094626426697 120 86 15
-0.3079114854335785 -0.5531924366950989 0.973374605178833 254 128 6
-0.27209070324897766 0.2665189504623413 -0.15011735260486603 81 63 1
0.594473123550415 -0.7359359264373779 -0.255755752325058 90 50 27
-0.26551365852355957 0.023338109254837036 -0.29573339223861694 0 0 0
-0.4303834140300751 0.5644925236701965 0.01593775674700737 0 0 0
-0.4867424964904785 -1.1367905139923096 -0.3428690731525421 246 217 171
-0.033344388008117676 -1.1100467443466187 -0.2750624418258667 232 218 181
0.4879721999168396 -0.785191535949707 -0.2988731861114502 231 219 182
0.3648357391357422 -1.1352852582931519 -0.31229931116104126 240 225 187
0.032236240804195404 -1.1274116039276123 -0.28595295548439026 254 231 182
-0.35699382424354553 -0.5520841479301453 0.9983307123184204 255 253 81
0.37793052196502686 -0.48964419960975647 0.7256661057472229 254 192 51
-0.09264087677001953 -0.5496871471405029 -0.29942068457603455 240 222 181
0.3109770715236664 0.03782959282398224 0.40553662180900574 236 230 250
-0.02203868143260479 -0.7109281420707703 0.6484485268592834 234 77 0
0.13178099691867828 -0.09425561875104904 0.32541027665138245 147 113 29
0.3154154121875763 0.5904362797737122 0.00467012170702219 14 14 19
-0.2051408290863037 -0.2088632583618164 0.5124530792236328 59 35 0
-0.249955415725708 0.6506288051605225 0.019848821684718132 0 0 1
-0.6064305901527405 0.031950559467077255 -0.2923915386199951 31 11 0
0.0009713229956105351 -0.540786862373352 0.9553770422935486 131 119 38
-0.41255372762680054 0.625160813331604 0.02590319700539112 6 4 4
-0.4403160512447357 0.535890519618988 0.015226558782160282 22 25 29
0.5908815264701843 0.42282646894454956 -0.24723349511623383 116 79 64
0.39344534277915955 0.8235965371131897 0.01348252035677433 27 31 37
-0.24909761548042297 0.6079800724983215 0.009357058443129063 0 0 1
0.23628389835357666 -0.7138965725898743 0.6634255647659302 255 216 61
-0.04121141880750656 -0.7225188612937927 0.6459906101226807 254 100 0
0.27349400520324707 -1.083536982536316 -0.31122851371765137 117 116 107
-0.5211383700370789 -1.1369144916534424 -0.34274789690971375 246 219 171
-0.5871791243553162 -1.1368802785873413 -0.3426893949508667 252 223 175
-0.30163678526878357 0.3711804449558258 0.24382072687149048 70 80 109
-0.48280999064445496 -1.1354451179504395 -0.31214866042137146 237 221 182
-0.11899090558290482 -1.1361255645751953 -0.31262218952178955 240 221 182
-0.40302836894989014 -1.0414705276489258 -0.29892611503601074 235 221 186
-0.47402727603912354 -1.0316801071166992 -0.3030186891555786 135 117 84
-0.20393048226833344 0.35465896129608154 0.30988070368766785 198 207 233
0.6201753616333008 1.1426904201507568 -0.33152565360069275 103 105 97
-0.28758713603019714 0.39081600308418274 0.25096091628074646 174 186 217
0.17217056453227997 0.8592180013656616 0.6476929783821106 255 235 73
-0.23071616888046265 -1.1359254121780396 -0.3123922049999237 241 223 183
0.34723103046417236 -0.5863773226737976 0.9864085912704468 254 254 75
-0.40210118889808655 -1.1367748975753784 -0.34282225370407104 251 222 175
0.37470197677612305 -0.5805535912513733 0.9935800433158875 255 254 78
-0.11848129332065582 0.4049525856971741 0.6699385046958923 255 234 71
-0.44715234637260437 -1.1353148221969604 -0.3166041970252991 227 196 150
0.3656439185142517 -0.5536868572235107 0.996570348739624 255 252 77
-0.34892135858535767 -0.9117969870567322 -0.29744860529899597 235 221 184
-0.439407616853714 -1.136811375617981 -0.3429429829120636 245 219 171
-0.45096370577812195 -1.1366647481918335 -0.312692254781723 238 222 184
-0.4584979712963104 -1.1356667280197144 -0.3157312870025635 229 198 153
-0.20645897090435028 0.3460988700389862 0.2903898060321808 168 171 187
-0.1597127914428711 0.4441031515598297 0.6237055063247681 255 171 34
-0.30201295018196106 -1.136422872543335 -0.3127118945121765 240 221 182
0.6292604207992554 0.960981547832489 -0.2617173492908478 154 105 80
-0.3259892761707306 -0.9232064485549927 0.6431148052215576 255 196 49
0.09370201081037521 0.9074997901916504 0.6720368266105652 254 222 75
0.18608155846595764 0.7770267128944397 0.6521742939949036 255 206 57
0.5805302858352661 -1.1369099617004395 -0.3427678942680359 254 225 177
-0.41691675782203674 -1.1226428747177124 -0.30696505308151245 254 212 158
0.24621333181858063 -1.134421467781067 -0.31645527482032776 228 199 154
-0.19822542369365692 -1.1360344886779785 -0.3125479817390442 239 221 183
-0.12394153326749802 -0.5627309083938599 0.9835119843482971 254 101 0
-0.3158729076385498 0.38958004117012024 0.23632977902889252 177 193 227
-0.09210389852523804 -0.5484007596969604 0.9999924302101135 55 0 0
-0.403038889169693 -1.0375266075134277 -0.3060772120952606 150 122 76
0.07532212138175964 0.8831633925437927 0.6715824604034424 88 43 9
-0.36859843134880066 -0.9531571865081787 0.6366681456565857 255 232 63
-0.47612646222114563 -1.0903071165084839 -0.31221187114715576 77 82 88
0.05110129341483116 -0.5480709671974182 0.9851457476615906 154 136 44
-0.15612570941448212 0.8085602521896362 0.6496257185935974 255 224 69
0.17242811620235443 0.7479218244552612 0.6830928921699524 255 238 72
0.5305560827255249 1.1457552909851074 -0.31168875098228455 149 147 132
0.24835477769374847 -0.4040358066558838 0.929559588432312 116 139 180
-0.16800233721733093 0.86684250831604 0.6460210680961609 255 228 72
-0.08788494020700455 1.1076818704605103 -0.2984718084335327 130 135 129
-0.3035985231399536 -1.086354374885559 -0.3111293911933899 75 85 90
0.2687087953090668 -0.5429713129997253 0.9645142555236816 76 52 18
-0.34960368275642395 1.1334182024002075 -0.32507604360580444 101 103 95
-0.32842594385147095 -0.8937411904335022 0.6538110375404358 255 234 74
0.6074434518814087 1.145477294921875 -0.28577303886413574 145 99 77
-0.35637983679771423 -0.9170186519622803 -0.29669174551963806 233 218 182
0.5888093709945679 1.145744800567627 -0.28565382957458496 136 95 75
-0.31610462069511414 0.46905165910720825 0.2508684992790222 254 214 55
0.4746374487876892 -1.1330894231796265 -0.34032583236694336 228 201 157
0.29652512073516846 -0.570701539516449 0.9877077341079712 254 176 36
-0.5607362389564514 -1.1304972171783447 -0.3133656084537506 224 208 171
-0.1900506168603897 0.7785418629646301 0.6705255508422852 254 224 69
0.1513753980398178 0.3862490653991699 0.4530976116657257 255 246 58
-0.15368705987930298 -1.124424695968628 -0.31197085976600647 255 234 186
0.11598008871078491 -0.5508651733398438 0.9835581183433533 160 139 46
-0.23835787177085876 1.1270874738693237 -0.3121659457683563 82 91 87
-0.32640230655670166 -0.885452151298523 0.6529269218444824 255 235 73
-0.030860314145684242 -1.1090296506881714 -0.2750106453895569 231 218 183
0.07833664119243622 -0.460267037153244 0.9188461303710938 193 202 228
-0.29606807231903076 -0.9281848073005676 -0.2980400323867798 236 221 185
-0.34633705019950867 -0.824225127696991 0.6834038496017456 255 254 80
-0.10709954798221588 -1.136081337928772 -0.3124985694885254 239 220 181
0.13363684713840485 0.38199976086616516 0.4345489740371704 255 239 63
0.13026005029678345 0.39767390489578247 0.4781525433063507 255 248 69
-0.2388029396533966 -0.41329121589660645 -0.30493566393852234 116 101 71
0.31565728783607483 1.1222426891326904 -0.313484787940979 192 187 164
0.17948605120182037 0.38851624727249146 0.4516946077346802 255 252 65
-0.3729223608970642 -0.845025360584259 0.6440389752388 254 182 22
-0.36499425768852234 -0.5284274816513062 0.9661552906036377 76 54 3
-0.2337387353181839 -0.5491385459899902 0.9892364740371704 149 130 38
0.1308699995279312 0.37776899337768555 0.42381277680397034 255 246 66
0.33592432737350464 -1.0845612287521362 -0.31053608655929565 90 94 95
-0.2815667986869812 -1.1356936693191528 -0.3123297393321991 240 223 183
0.24706214666366577 0.8214669823646545 0.3461275100708008 177 172 186
-0.22313499450683594 -0.9120631814002991 -0.29739341139793396 237 222 185
-0.19021281599998474 0.4695310592651367 0.656944751739502 254 214 71
-0.3848523199558258 -0.7858016490936279 0.7303572297096252 17 0 0
-0.5793570280075073 1.1323615312576294 -0.3003441095352173 119 74 49
-0.40248969197273254 -1.1046080589294434 -0.2986729145050049 234 223 191
0.14358177781105042 -1.1359800100326538 -0.3126242756843567 240 221 182
-0.35411855578422546 1.0420968532562256 -0.2981158494949341 129 134 129
-0.2402873933315277 0.759653627872467 0.3662625253200531 67 69 91
0.23753319680690765 0.4430496394634247 0.5635694861412048 206 205 223
-0.10574302822351456 -0.3559581935405731 -0.03755306825041771 189 185 195
0.035892095416784286 -1.1366267204284668 -0.34269407391548157 254 228 181
0.3969409167766571 -0.98321533203125 -0.3071136474609375 113 98 69
-0.18821322917938232 0.5319666266441345 0.6575372219085693 255 229 59
-0.3816269040107727 -0.7048426270484924 0.8256136775016785 117 97 23
0.4689529240131378 -0.7017295360565186 -0.3107687532901764 81 78 73
0.10047135502099991 0.8232565522193909 0.19544149935245514 136 104 22
-0.6338253617286682 0.8782585859298706 -0.3072221577167511 50 32 25
0.018346816301345825 1.1173176765441895 -0.2716926634311676 133 133 123
-0.4762662947177887 1.111761450767517 -0.29853999614715576 132 138 132
0.5530676245689392 1.1175371408462524 -0.2988271117210388 225 214 180
0.4625342786312103 -0.5323302745819092 -0.29636913537979126 230 214 177
0.3781449794769287 -1.1360194683074951 -0.31246691942214966 241 223 184
0.5457295775413513 0.929841160774231 -0.2979729473590851 208 196 163
0.40621697902679443 -1.1046781539916992 -0.30457159876823425 86 76 52
-0.23680026829242706 0.4387226700782776 0.2641657292842865 245 203 57
-0.4652293026447296 0.990470826625824 -0.2993006110191345 132 131 125
-0.5498793721199036 0.9212652444839478 -0.29879286885261536 163 162 144
-0.08193901181221008 -0.5643700361251831 0.9857890605926514 254 174 35
-0.41511625051498413 -0.8462322950363159 -0.29783767461776733 233 219 183
-0.2874145209789276 0.6823590397834778 0.27401408553123474 96 77 20
-0.028401385992765427 -0.6678512692451477 -0.27391737699508667 230 215 181
-0.3626044988632202 -0.5936857461929321 -0.2966947555541992 236 221 183
0.09233871847391129 0.2331441342830658 0.2999427020549774 225 185 60
0.12972073256969452 0.8036273121833801 0.419784277677536 254 210 42
-0.23845833539962769 -1.1115734577178955 -0.30679431557655334 139 124 93
-0.07205729186534882 -0.886501669883728 0.6527354717254639 255 236 73
-0.5350295305252075 -1.029563546180725 -0.30784812569618225 104 91 70
0.6206105947494507 0.9964598417282104 -0.2619541883468628 152 103 79
-0.15896686911582947 0.8587278127670288 0.3519648015499115 152 115 20
-0.33930453658103943 -1.0412729978561401 -0.2982802987098694 237 223 187
-0.153072789311409 -1.034784197807312 -0.2972108721733093 234 221 185
-0.5038461089134216 0.951935887336731 -0.2851288318634033 134 138 130
0.5282793045043945 0.9325866103172302 -0.30660581588745117 133 121 88
0.2426159530878067 0.4628761112689972 0.5543597936630249 147 161 193
0.20726041495800018 -1.1355220079421997 -0.31236550211906433 239 222 184
-0.374605268239975 -0.8438613414764404 0.6484049558639526 255 236 69
-0.10062219202518463 0.4471423029899597 0.6847002506256104 255 236 75
0.1591568887233734 0.559492290019989 0.6617447733879089 255 197 37
0.6201218962669373 1.0328034162521362 -0.28987306356430054 17 23 36
0.02399100363254547 -1.136046051979065 -0.2870230972766876 241 223 184
-0.4838719367980957 1.1296943426132202 -0.3049662709236145 99 103 93
0.15885673463344574 0.6461946368217468 0.6706181168556213 157 115 40
-0.1742931604385376 0.7450855374336243 0.6671334505081177 254 153 13
-0.3814947307109833 -0.8004498481750488 0.7116456031799316 255 254 75
-0.5018627047538757 1.1378728151321411 -0.31117361783981323 144 147 136
-0.03465873748064041 -1.1360372304916382 -0.2868691384792328 241 224 185
0.03395848721265793 -1.107628345489502 -0.27524223923683167 233 218 183
-0.379976361989975 -0.8518521189689636 0.6465957164764404 53 41 15
-0.16038481891155243 1.1167559623718262 -0.29921966791152954 125 128 120
0.2086513638496399 -0.957360565662384 -0.3111328184604645 75 80 85
0.5358650088310242 1.0006214380264282 -0.3059547543525696 136 125 92
0.22142164409160614 0.856062114238739 0.36580541729927063 127 140 168
0.1566271036863327 0.6905895471572876 0.6804519891738892 255 234 75
-0.48297563195228577 1.0021681785583496 -0.2966741919517517 130 133 126
-0.08784019947052002 -0.5370990037918091 0.9684369564056396 210 174 0
0.09818919003009796 -1.0959677696228027 -0.2971053421497345 239 224 186
-0.38199520111083984 -0.7613459825515747 0.7608175277709961 255 254 76
-0.2125999480485916 -1.10215425491333 -0.3075161874294281 166 131 82
-0.16935308277606964 -1.0552184581756592 -0.29823416471481323 234 220 184
0.24940796196460724 1.1371643543243408 -0.31112751364707947 192 184 157
0.10668458044528961 0.7530879378318787 0.6839364767074585 255 237 77
0.027093082666397095 0.7542299628257751 0.6839281320571899 255 232 74
-0.18718384206295013 0.3826356828212738 0.4344027638435364 255 249 72
-0.1738905906677246 0.37768977880477905 0.4624839723110199 255 235 67
-0.42023658752441406 -0.4601774215698242 -0.29674869775772095 228 213 177
-0.634119987487793 -0.5748221278190613 -0.3418697714805603 93 94 88
-0.29048967361450195 0.705231249332428 0.24635227024555206 109 94 25
-0.037530310451984406 0.8851805329322815 0.6808231472969055 255 231 71
-0.2937345504760742 -0.7255815267562866 -0.29683518409729004 234 218 180
0.15545521676540375 1.104022741317749 -0.29913032054901123 156 155 141
-0.4058281183242798 -0.20973259210586548 -0.11148329824209213 2 2 5
0.3207806646823883 -0.9491137862205505 0.6446318030357361 117 59 11
0.5323953032493591 -0.3426312506198883 -0.29854944348335266 230 214 176
-0.37404945492744446 -0.16656970977783203 -0.22775296866893768 0 0 0
-0.41132938861846924 1.0629059076309204 -0.29800906777381897 126 130 123
0.39851003885269165 -0.9812333583831787 -0.2962964177131653 236 222 185
-0.2934013605117798 1.0047667026519775 0.040473051369190216 55 52 58
0.20859819650650024 -1.0378409624099731 -0.2959340214729309 236 222 185
0.2785555422306061 -0.7763527631759644 -0.30899813771247864 112 96 69
-0.2539888024330139 0.834072470664978 0.2201341837644577 53 66 125
-0.2121756672859192 0.7900334000587463 0.3748171925544739 123 100 103
0.32371026277542114 1.1403688192367554 -0.33624547719955444 105 106 98
-0.14978909492492676 -1.0988645553588867 -0.30601945519447327 145 122 81
0.35920023918151855 -0.9449431300163269 0.6571967601776123 255 233 73
0.32441991567611694 -0.8872331380844116 0.6523589491844177 255 242 76
0.015155225060880184 -1.0220428705215454 -0.2862495183944702 46 63 82
-0.15727317333221436 -0.724150538444519 -0.2984603941440582 230 216 179
-0.30487537384033203 0.00786448922008276 0.1872125267982483 76 91 124
0.38303133845329285 -0.6661182045936584 0.8623747229576111 255 254 71
0.3941320478916168 -1.025681495666504 -0.31060782074928284 85 92 96
-0.0372723713517189 -1.1227524280548096 -0.27411097288131714 244 232 198
-0.3685551583766937 1.144472360610962 -0.31129491329193115 129 133 125
0.2863512337207794 -0.9114934206008911 -0.2977205216884613 234 219 182
-0.4158628582954407 -0.19974592328071594 -0.18530771136283875 92 93 92
-0.03567921742796898 0.8197380304336548 0.6833289265632629 255 234 76
-0.27853015065193176 0.5075547099113464 0.2766098976135254 254 217 67
-0.40979769825935364 -0.327972412109375 -0.30902543663978577 74 62 47
-0.6203972101211548 -0.7805544137954712 -0.2610323429107666 156 106 80
-0.3718021512031555 -0.1849488914012909 -0.19942022860050201 2 0 0
0.4139518439769745 -0.9843462109565735 -0.3000619113445282 231 218 182
0.21138770878314972 -1.0341155529022217 -0.30667221546173096 125 110 82
-0.22930802404880524 -0.8287961483001709 -0.31143203377723694 90 92 90
0.5891280174255371 0.7829799056053162 -0.28041180968284607 152 94 57
0.22355881333351135 -1.085627794265747 -0.3106648921966553 73 75 77
-0.34859225153923035 -0.5434636473655701 -0.30096471309661865 225 212 179
0.14414703845977783 -0.8314211964607239 -0.3108302056789398 57 64 74
-0.24434787034988403 0.5307472348213196 0.4938720464706421 63 67 88
-0.46634379029273987 -0.7226126790046692 -0.29935258626937866 235 218 181
-0.03935752809047699 0.5711208581924438 0.26386865973472595 254 228 28
-0.4378945827484131 -0.20618928968906403 -0.10857146978378296 5 5 7
0.0735890343785286 -0.5527110695838928 0.9980879426002502 255 254 80
0.4399116635322571 1.1280633211135864 -0.313699334859848 228 215 178
-0.05789726600050926 1.145387887954712 -0.2976478040218353 106 107 98
-0.6342442035675049 -0.9586305022239685 -0.2622230648994446 158 108 83
0.16444805264472961 -0.32075268030166626 0.5367428064346313 175 108 4
-0.28577712178230286 -0.7850626707077026 -0.29764890670776367 238 222 184
0.4866708219051361 -0.667640745639801 -0.29875802993774414 214 199 164
-0.37871307134628296 -0.498629093170166 0.8254832029342651 101 89 25
-0.49629244208335876 0.8357483148574829 -0.2867330014705658 107 115 113
0.24587659537792206 -0.41488534212112427 0.5978811979293823 51 51 61
-0.029211487621068954 -0.5518160462379456 0.9797099828720093 183 104 11
0.1002618670463562 0.8265489339828491 0.6840103268623352 255 240 78
0.4832240343093872 -1.0971134901046753 -0.2973291873931885 233 220 184
-0.4220764935016632 -0.9671105146408081 -0.308258593082428 114 106 85
-0.3818513751029968 -0.9281131029129028 0.6530141234397888 77 63 18
-0.1667127013206482 0.573369562625885 0.6703027486801147 128 95 4
-0.18752558529376984 0.6291005611419678 0.6700623035430908 255 223 69
0.18051086366176605 -0.550898551940918 0.9926299452781677 154 134 48
-0.2965218126773834 -0.5530624389648438 0.9981786012649536 255 254 80
-0.3862517774105072 -0.6808071136474609 0.8668990135192871 1 0 0
0.14998012781143188 0.3814938962459564 0.3787408471107483 254 170 21
-0.39080965518951416 -0.6647086143493652 0.8623889088630676 255 221 64
-0.598758339881897 -0.7400988936424255 -0.27472251653671265 119 83 67
0.3366016447544098 -0.9491519331932068 0.639869213104248 255 232 64
0.026700960472226143 -0.7243507504463196 -0.2718628942966461 235 219 180
0.5869969725608826 -1.0725239515304565 -0.2858118414878845 153 102 76
0.47747328877449036 -1.0230284929275513 -0.3117528259754181 79 82 85
-0.10335884243249893 0.839546263217926 0.6687532067298889 149 130 46
-0.3813902735710144 -0.6651960015296936 0.884469211101532 255 254 74
0.22420121729373932 -0.38309022784233093 0.6026322841644287 17 12 11
-0.2538076639175415 0.8598685264587402 0.34657472372055054 68 79 106
-0.3684003949165344 -0.5545696020126343 -0.312750905752182 234 215 173
-0.16154782474040985 0.6230573058128357 0.6812344789505005 255 233 75
0.08566383272409439 -0.8315103650093079 -0.30971553921699524 112 99 82
-0.4150039851665497 1.1392273902893066 -0.3108169734477997 133 136 126
-0.6313982009887695 -0.9400034546852112 -0.2680734097957611 40 27 23
0.16703571379184723 1.0151599645614624 -0.039565399289131165 10 15 23
-0.22806613147258759 -0.42859891057014465 0.6529310345649719 18 19 25
-0.27233976125717163 1.0305063724517822 0.06089971587061882 108 113 137
-0.2362186759710312 0.42230620980262756 0.5023418068885803 122 133 161
0.6048687100410461 0.6695408821105957 -0.27577441930770874 149 101 76
-0.185464546084404 0.8930158019065857 0.2855491042137146 160 0 0
-0.0629621222615242 -0.41801854968070984 0.9547162652015686 216 227 254
0.19353972375392914 0.9653828740119934 0.16053728759288788 75 90 124
-0.11474571377038956 -0.9499043226242065 0.6479103565216064 255 225 61
0.09746522456407547 -0.8009904623031616 -0.299896240234375 234 218 185
0.24895016849040985 -0.8582541942596436 0.649437427520752 255 231 69
-0.10587754100561142 0.7408095002174377 0.6846482157707214 255 235 76
-0.633703351020813 -0.6292998790740967 -0.30705809593200684 30 18 15
-0.6326253414154053 -0.8172426223754883 -0.2612864673137665 160 108 82
0.5372307300567627 0.35673195123672485 -0.27394944429397583 146 97 72
0.24866211414337158 0.9056017398834229 0.23665408790111542 255 230 70
-0.4361647665500641 -0.19228531420230865 -0.056818678975105286 5 4 7
0.4237857460975647 -0.7248436212539673 -0.2989976704120636 233 218 181
-0.3565167188644409 -0.48525217175483704 -0.3017532527446747 230 212 172
0.06984817236661911 0.9048243761062622 0.18759578466415405 254 206 57
0.29610270261764526 0.6150385141372681 0.2750825583934784 255 245 71
0.11609573662281036 -0.9512768983840942 0.6567288637161255 255 234 72
0.4766659438610077 1.11412513256073 -0.3009277582168579 227 215 183
0.08025046437978745 -0.150416761636734 0.33088359236717224 97 87 94
-0.6147760152816772 -1.0716984272003174 -0.28768178820610046 119 83 70
0.09984081983566284 0.3172866702079773 0.3007863759994507 255 226 68
0.4388110935688019 -0.20181985199451447 -0.06700269132852554 29 27 24
0.16307371854782104 1.1378567218780518 -0.3090660572052002 198 199 180
-0.2126077115535736 -0.9098556637763977 -0.3061595559120178 149 124 78
-0.21754013001918793 -0.7804092168807983 -0.29745423793792725 233 219 183
0.22787781059741974 -0.8918522000312805 0.6526105999946594 255 237 73
-0.026836853474378586 0.5094307065010071 0.2767334282398224 254 216 62
0.2690947949886322 -1.0228028297424316 -0.3109355568885803 52 63 76
0.3768947422504425 -0.929018497467041 0.6546054482460022 254 220 66
0.47923389077186584 -0.8331226110458374 -0.2845030426979065 231 217 180
0.40714991092681885 -0.7653571963310242 -0.3113516867160797 95 94 91
-0.1536990851163864 -0.22274264693260193 0.7458608746528625 141 152 184
-0.036622729152441025 -0.39639362692832947 0.9083701372146606 96 100 117
-0.09661072492599487 0.5105215907096863 0.27663153409957886 254 217 64
-0.20846636593341827 0.5362817645072937 0.5027784109115601 84 80 101
0.11332899332046509 -0.8192782402038574 0.6730733513832092 255 228 71
-0.08940716832876205 0.6351699233055115 0.6847313642501831 255 228 74
-0.40662822127342224 -0.1945730596780777 -0.18773521482944489 0 0 0
-0.2352103888988495 -0.8463375568389893 -0.2959384322166443 236 221 184
0.038001902401447296 -0.6468323469161987 -0.286786824464798 84 69 56
0.20351961255073547 -0.7769590616226196 -0.3111124336719513 53 55 59
-0.6156042218208313 0.9476903080940247 -0.28815436363220215 66 53 50
-0.1722508668899536 -0.5367175936698914 0.9785851836204529 130 108 23
0.5866482257843018 0.9168106913566589 -0.2596997618675232 152 103 77
-0.25142982602119446 0.3138846158981323 0.2648814916610718 255 218 68
0.10131756961345673 -0.8908383846282959 0.6527129411697388 255 232 71
0.2992921769618988 -0.8181340098381042 0.6726032495498657 255 218 67
-0.1409061998128891 -0.345831960439682 0.8587826490402222 154 164 194
0.07532825320959091 0.8251506090164185 0.6712790727615356 76 46 26
0.24671703577041626 -0.8744957447052002 0.6413933634757996 247 187 45
0.24609561264514923 -0.8971865177154541 0.6535798907279968 255 233 71
-0.2527286112308502 -0.41566890478134155 0.5798558592796326 72 80 108
0.2863406836986542 0.30923375487327576 0.2149008959531784 202 211 237
-0.29087936878204346 -0.06040600687265396 0.21473422646522522 81 91 120
-0.1646415740251541 -0.16104581952095032 0.729923665523529 120 133 163
-0.03117772378027439 -0.6050295233726501 -0.2743839621543884 230 214 180
-0.6342213153839111 0.9133933186531067 -0.34195926785469055 94 95 89
-0.3473900258541107 -1.1101471185684204 -0.3004639744758606 236 222 187
0.5427534580230713 -0.9762150049209595 -0.2986571490764618 229 215 180
-0.14773403108119965 0.8741254210472107 0.6511863470077515 255 222 69
-0.16731621325016022 0.6361392736434937 0.6820389032363892 143 68 2
-0.3898405134677887 -0.7054219841957092 0.7918233871459961 106 92 26
-0.4762646555900574 -0.8582037687301636 -0.3008420169353485 226 213 179
-0.2465415894985199 -0.43704694509506226 0.9123077392578125 177 180 183
-0.2470303624868393 0.4760724902153015 0.5417315363883972 91 103 131
-0.49085235595703125 -0.28637567162513733 -0.29890012741088867 224 209 173
-0.6075294017791748 -0.6571499109268188 -0.2720835506916046 113 78 64
-0.40960732102394104 0.9162002205848694 -0.2990269064903259 115 120 118
-0.38746562600135803 -0.19512015581130981 -0.05647891014814377 0 0 0
0.08148416131734848 0.889711856842041 0.6821136474609375 119 66 7
-0.23330926895141602 0.44152432680130005 0.5516044497489929 213 223 253
0.29663482308387756 0.5041793584823608 0.27595075964927673 255 231 71
-0.46743547916412354 -0.7860962152481079 -0.3067396581172943 165 124 64
-0.4762892425060272 -0.917756199836731 -0.31142428517341614 220 165 93
-0.09587347507476807 0.8101732134819031 0.6822773218154907 255 233 74
-0.09613987803459167 -0.29768916964530945 0.30029240250587463 173 127 36
-0.3150588274002075 -0.39663729071617126 -0.3131469786167145 221 208 170
0.5893108248710632 -0.7888096570968628 -0.2715582549571991 159 107 80
-0.252023845911026 -0.40315958857536316 0.8945963978767395 72 68 72
-0.25294429063796997 0.4242258667945862 0.5246207118034363 226 223 236
-0.2465093433856964 0.4738244116306305 0.5238640904426575 57 62 79
-0.629323422908783 0.8518843054771423 -0.33771488070487976 88 87 81
-0.31291642785072327 -0.17057396471500397 0.635754406452179 83 89 109
-0.44213151931762695 -0.1658724844455719 -0.01471471693366766 5 5 8
-0.3760039210319519 -0.5166707038879395 0.8896452784538269 128 118 43
-0.4756510853767395 -0.2870807647705078 -0.30070698261260986 211 199 171
-0.00340229831635952 0.8935611248016357 0.18710492551326752 184 150 43
-0.12411236017942429 -0.3985642194747925 0.24773965775966644 5 6 3
-0.17316141724586487 0.8885836601257324 0.48901090025901794 123 109 32
-0.2299010306596756 -0.4015524685382843 0.9206754565238953 21 25 32
0.5721293687820435 0.044560205191373825 -0.25958821177482605 144 96 70
0.43368494510650635 -0.13179275393486023 0.021732697263360023 36 34 39
0.08394730091094971 -0.8469447493553162 0.6328915953636169 255 249 67
-0.027411581948399544 0.24702027440071106 0.5266446471214294 0 0 0
0.43865641951560974 -0.17944291234016418 -0.025403479114174843 20 17 17
-0.15775066614151 0.8601749539375305 0.42139479517936707 121 82 5
0.4745104908943176 0.9790741801261902 -0.29996299743652344 227 215 180
-0.3414095640182495 -1.098051905632019 -0.3058706820011139 137 119 82
-0.30488136410713196 -1.1082230806350708 -0.30063530802726746 53 45 32
-0.23698505759239197 -0.7217256426811218 -0.29610690474510193 234 219 182
-0.28528648614883423 -0.6697588562965393 -0.2997490465641022 228 214 180
0.027047108858823776 -0.9828709959983826 -0.28098028898239136 102 95 75
-0.40398940443992615 -0.3420729339122772 -0.2992148697376251 222 207 171
-0.47621020674705505 -0.4045085906982422 -0.2991091310977936 220 205 169
-0.6319693922996521 -0.2746369242668152 -0.2354631870985031 111 77 63
0.40249454975128174 -0.1835966557264328 -0.02827450819313526 40 39 38
-0.3596903681755066 0.15989473462104797 -0.1136825680732727 49 56 73
0.3302472233772278 -0.9069684743881226 -0.31097039580345154 42 48 51
-0.4435402750968933 -0.13723020255565643 0.01586359180510044 5 4 8
-0.3761332333087921 -0.20117002725601196 -0.1827870011329651 31 31 30
-0.15824145078659058 -1.0223498344421387 -0.31170758605003357 68 71 77
-0.19340001046657562 -0.39695337414741516 0.92741858959198 15 29 54
-0.3757264316082001 -0.9254707098007202 0.6542409062385559 255 237 76
0.20113801956176758 -0.559778094291687 0.9918428063392639 255 253 77
-0.5317694544792175 -0.913176417350769 -0.2998422086238861 229 213 177
-0.3816550076007843 -0.6293100118637085 0.929981529712677 255 254 76
-0.2481813281774521 -0.15798529982566833 0.7260006666183472 103 93 27
-0.08708476275205612 0.42607301473617554 0.6834040284156799 255 236 76
0.24843840301036835 0.3506000339984894 0.3032965362071991 36 28 27
-0.1269625723361969 0.9066385626792908 0.6596824526786804 112 99 27
0.03193078562617302 -0.5617900490760803 0.9917197227478027 255 251 79
0.03987408056855202 -0.5524404644966125 0.9981117248535156 255 254 80
-0.253612220287323 0.4782101511955261 0.5344233512878418 68 77 103
-0.1867927759885788 0.6513028144836426 0.6534685492515564 103 93 26
-0.12797203660011292 -0.3958517909049988 0.23715782165527344 27 11 5
0.3373236656188965 1.1257355213165283 -0.2973090410232544 236 222 188
-0.3652994930744171 -0.35095202922821045 -0.2960585951805115 226 211 175
-0.09649684280157089 0.49252331256866455 0.6817812323570251 255 233 75
-0.04675278812646866 -0.9054799675941467 -0.2858159840106964 101 101 91
-0.2532644271850586 0.451077938079834 0.5493839383125305 74 87 120
-0.1615697592496872 0.44933992624282837 0.6154826879501343 100 14 0
-0.3664490878582001 -1.0273058414459229 -0.31079941987991333 80 86 86
0.14126056432724 0.5859703421592712 0.32092490792274475 96 78 67
-0.25414061546325684 0.45421484112739563 0.5572183728218079 0 1 2
-0.20920488238334656 -0.40726885199546814 0.9247255921363831 137 155 193
0.145573228597641 -0.9893414378166199 -0.3058178424835205 132 115 77
0.6005501747131348 -1.0395876169204712 -0.2739087641239166 158 109 84
0.031270671635866165 -0.5418819189071655 -0.2759072780609131 229 213 179
-0.29767030477523804 -0.46927595138549805 0.7932085990905762 121 113 38
-0.2284504473209381 -0.3966376781463623 0.897318422794342 24 25 28
-0.4811697006225586 -0.9044830203056335 -0.2968809902667999 236 221 187
0.29148030281066895 0.5730174779891968 0.27648332715034485 255 233 72
0.5854403376579285 0.5813112258911133 -0.2640805244445801 39 27 22
0.24905839562416077 -0.1378256231546402 0.7458121180534363 247 212 70
0.518092691898346 -0.571808934211731 -0.2603713870048523 155 104 76
-0.12197629362344742 -0.5338795185089111 -0.31313467025756836 220 207 168
-0.620204508304596 -0.1337006539106369 -0.234341561794281 90 63 54
-0.6248999238014221 -0.20078158378601074 -0.23644603788852692 95 66 55
-0.5699788928031921 -0.6319392919540405 -0.2601131200790405 121 84 69
0.21376220881938934 -0.839844286441803 -0.3086419403553009 108 95 71
-0.40815943479537964 -0.23401401937007904 -0.30724576115608215 254 225 168
0.2646946310997009 -0.13332316279411316 0.5809696316719055 93 103 136
-0.5958525538444519 -0.3387680649757385 -0.24863654375076294 108 75 61
-0.6219499111175537 -0.0981757640838623 -0.23486138880252838 82 58 51
-0.12401755154132843 0.42419975996017456 0.6611543893814087 140 107 25
-0.058941952884197235 -0.5496081113815308 0.984892725944519 149 134 46
0.42494985461235046 0.7920272946357727 -0.2982829213142395 253 237 190
-0.6333515644073486 -0.2273876965045929 -0.23681806027889252 108 75 63
0.4362633228302002 -0.15071631968021393 0.0014161660801619291 1 1 1
-0.03388242796063423 -0.48019149899482727 -0.275453120470047 232 212 173
0.022945290431380272 -0.7648552060127258 -0.2858811616897583 109 105 102
-0.4881227910518646 -0.5442161560058594 -0.29909172654151917 227 209 169
0.10381390154361725 0.17680992186069489 0.2996234595775604 187 156 53
-0.4887818992137909 -0.3301672041416168 -0.30458498001098633 84 74 63
-0.0019460748881101608 0.6513583064079285 0.7524958848953247 230 0 0
-0.6115248203277588 -0.310224324464798 -0.24830053746700287 108 66 45
0.5905855894088745 0.5592414736747742 -0.254940003156662 5 4 8
-0.6322600245475769 -0.24041858315467834 -0.2356051206588745 104 73 61
-0.23570020496845245 0.9860212206840515 -0.2977883219718933 123 124 115
-0.5692219138145447 -0.6909231543540955 -0.27257928252220154 127 80 55
-0.4143884778022766 -0.14770622551441193 -0.25457894802093506 0 0 4
-0.2241240292787552 -0.41381707787513733 -0.29936376214027405 224 206 167
-0.6402261853218079 -0.950456976890564 -0.2621731758117676 0 0 0
-0.6092340350151062 -0.4824170470237732 -0.249720498919487 108 79 68
0.4033784568309784 -0.12600214779376984 0.02285750024020672 8 9 11
0.44064295291900635 0.8753442168235779 -0.1778072714805603 30 30 34
-0.362728089094162 -0.5966325402259827 0.9713289737701416 255 254 76
0.015493498183786869 0.8806475400924683 0.6818059086799622 168 92 6
0.08809603005647659 -0.39523568749427795 0.8948831558227539 95 110 150
-0.11983706057071686 0.877390444278717 0.6516160368919373 96 83 21
0.3402579426765442 1.1054174900054932 -0.29827696084976196 197 189 164
0.16939178109169006 -0.021952703595161438 0.4727972149848938 221 158 40
0.06517785042524338 -0.9494203925132751 0.6466057300567627 22 0 0
-0.158590629696846 -0.41366568207740784 0.9039587378501892 40 32 31
0.17296674847602844 -0.07948396354913712 0.3251083195209503 203 150 39
0.3758035898208618 -0.5360596776008606 0.9477718472480774 254 211 56
0.14902985095977783 0.5636433959007263 0.32423144578933716 85 89 112
-0.15048711001873016 0.3883047103881836 0.4547387659549713 138 22 0
-0.10369956493377686 -1.0939383506774902 -0.31125131249427795 104 100 83
0.018138183280825615 0.3101500868797302 0.3020738661289215 255 217 65
0.3014028072357178 0.6834095120429993 0.19985754787921906 255 198 53
-0.15956160426139832 -0.8500447869300842 -0.2982065677642822 233 219 183
0.5906837582588196 -0.41536879539489746 -0.272303968667984 119 83 67
-0.6357086300849915 -1.0081356763839722 -0.2681708037853241 0 3 10
0.19553588330745697 -0.23005858063697815 0.6559730172157288 254 191 46
0.22811651229858398 -0.6517793536186218 -0.30734938383102417 139 120 86
-0.6332381963729858 -0.5045875906944275 -0.2600023150444031 106 74 61
-0.039523594081401825 -0.6379460692405701 -0.28632688522338867 81 82 85
0.4322865903377533 0.8777309656143188 -0.07905738800764084 10 9 9
-0.6315422058105469 -0.5648796558380127 -0.26121634244918823 117 81 65
0.5985715985298157 -0.8414222598075867 -0.27214816212654114 160 110 82
0.3923904299736023 0.8750846982002258 -0.17773516476154327 12 14 18
0.40219399333000183 0.8404636979103088 -0.23684963583946228 12 11 13
0.16620242595672607 -0.15990637242794037 0.7311050295829773 102 118 152
0.2567260265350342 -0.1910122036933899 -0.062006689608097076 11 9 0
-0.4312989115715027 -0.05692702904343605 0.042107295244932175 1 1 1
-0.30603834986686707 0.038062684237957 0.43508753180503845 58 77 115
0.28718405961990356 -0.14477089047431946 0.5964556336402893 113 127 162
-0.4439435303211212 -0.1255919188261032 0.019770046696066856 6 6 9
-0.621137797832489 -0.1503121256828308 -0.2353341281414032 90 63 54
-0.3763345777988434 0.14568251371383667 -0.11605435609817505 2 1 2
-0.05013783648610115 -0.7168774008750916 -0.286151260137558 52 55 57
0.15867017209529877 -0.17206867039203644 0.727747917175293 217 229 254
-0.38068675994873047 -0.5651141405105591 0.9950901865959167 255 253 80
0.1443314403295517 0.6297104954719543 0.6848648190498352 255 237 77
0.5825558304786682 -0.6970471739768982 -0.26083654165267944 185 124 82
-0.0829150378704071 -0.3946482241153717 0.8944075703620911 102 115 146
-0.18825431168079376 0.47370484471321106 0.6186764240264893 109 97 27
-0.16149094700813293 -0.20924776792526245 0.7413210272789001 111 133 177
-0.307137668132782 -0.19797107577323914 0.668684184551239 80 100 138
-0.11401355266571045 -0.5425553321838379 0.975370466709137 111 94 20
-0.6255509257316589 -0.613674521446228 -0.2851709723472595 115 80 65
-0.03470101207494736 1.0422759056091309 -0.27312350273132324 126 128 119
-0.25666680932044983 -0.42221006751060486 -0.3142279386520386 236 218 177
-0.31105896830558777 -0.015493313781917095 0.41521918773651123 107 88 87
0.43205735087394714 0.8867738246917725 -0.13024120032787323 12 12 12
0.18407034873962402 0.8753524422645569 0.44581183791160583 129 112 33
-0.25882893800735474 -0.1529516875743866 0.0035963391419500113 8 8 6
-0.10860933363437653 -0.27974075078964233 -0.2970889210700989 225 205 164
-0.4251825511455536 -0.10752182453870773 -0.2759409546852112 3 2 1
-0.4429367184638977 0.8664117455482483 -0.20165912806987762 1 0 1
0.5377838015556335 -0.7884896993637085 -0.27379006147384644 112 78 64
0.4389972388744354 0.32477226853370667 -0.0049753389321267605 33 35 37
-0.4413074553012848 0.8525565266609192 -0.2298063039779663 10 13 16
-0.5721989870071411 -0.5954247713088989 -0.2794815003871918 15 9 10
0.43010735511779785 0.3534872233867645 -0.003674403065815568 37 38 39
0.09294285625219345 0.8787499666213989 0.6804494857788086 255 232 75
-0.5377513766288757 -0.9047248363494873 -0.2984110713005066 234 218 179
-0.3724381625652313 -0.15834961831569672 -0.23549510538578033 2 1 1
-0.3004225790500641 -0.14003771543502808 0.015093482099473476 0 2 10
0.3855023682117462 -0.025353364646434784 0.04048634693026543 1 2 2
0.5405253767967224 -0.7322282195091248 -0.2735663652420044 109 75 61
-0.43467673659324646 0.8295060396194458 -0.24666327238082886 0 0 0
0.4307921528816223 0.20440399646759033 0.002147695515304804 23 25 25
0.43232598900794983 0.6551849842071533 -0.295254647731781 253 239 175
-0.4078459143638611 0.7983996868133545 0.02877003885805607 20 25 35
0.5389581322669983 -0.8550783395767212 -0.2749655544757843 110 75 59
-0.5163978934288025 -0.45736950635910034 -0.27701887488365173 102 64 42
0.2437850683927536 -0.13721613585948944 0.7034637928009033 158 123 30
0.4373804032802582 0.4000457227230072 -0.009207811206579208 19 19 19
-0.3561725914478302 -0.9453755617141724 0.6562923789024353 255 236 77
-0.03615310788154602 0.44719240069389343 0.6850358843803406 255 236 76
0.021749388426542282 0.9076911211013794 0.6717942953109741 215 186 62
0.15683969855308533 0.626300573348999 0.6799257397651672 255 235 76
0.08776864409446716 -0.5618146657943726 0.9924176335334778 255 252 80
-0.25287002325057983 -0.9523415565490723 0.6482635736465454 255 236 63
-0.18987375497817993 0.5814681053161621 0.6698670983314514 255 236 74
-0.026128120720386505 -0.5626230239868164 0.9923369884490967 255 254 79
0.34028396010398865 -0.20390167832374573 -0.09228131175041199 19 19 21
-0.18021216988563538 0.8535611629486084 0.6261144280433655 105 93 27
-0.1891295164823532 0.8513023257255554 0.6171069741249084 106 94 27
-0.41291505098342896 -0.10163440555334091 -0.27597102522850037 0 0 2
-0.4428864121437073 0.7357006669044495 0.04343290627002716 5 5 9
-0.18833491206169128 0.3628617525100708 0.38160791993141174 255 233 63
0.3333754539489746 -0.7701901793479919 -0.3107651174068451 68 73 76
-0.531338095664978 -0.7219069004058838 -0.27393636107444763 110 76 63
-0.3598812222480774 0.8253868818283081 0.0058663287200033665 4 4 3
0.5919047594070435 -0.9729263782501221 -0.2720392048358917 163 112 84
0.4366384744644165 0.21934877336025238 -0.0033970291260629892 17 15 18
0.38277482986450195 0.6696146130561829 0.04346921667456627 46 45 46
-0.43298232555389404 0.8894521594047546 -0.12780146300792694 12 14 16
0.15159201622009277 -1.0946511030197144 -0.3076249361038208 126 109 78
-0.1663827747106552 0.3625565767288208 0.3928239643573761 255 241 59
-0.16871477663516998 -0.4186514914035797 -0.29981914162635803 228 210 170
-0.5528185963630676 0.8710346221923828 -0.27159878611564636 87 64 57
0.4316276013851166 0.7233276963233948 0.05047719553112984 35 38 45
-0.21683785319328308 -0.7743783593177795 -0.3107629716396332 83 74 62
-0.3966902792453766 0.8456522822380066 -0.007347624748945236 27 36 49
0.3417310118675232 -0.20262008905410767 -0.07774907350540161 193 199 223
-0.3794243633747101 0.5274356007575989 -0.099685437977314 62 73 104
0.43130818009376526 0.7840163707733154 -0.2747401297092438 1 1 3
-0.42844921350479126 0.15869909524917603 0.006945886183530092 1 0 0
-0.37583786249160767 -0.849658191204071 0.648123562335968 255 240 76
-0.3817152976989746 -0.6029341220855713 0.9633181691169739 255 254 75
