ply
format ascii 1.0
element vertex 662
property float x
property float y
property float z
property uint8 red
property uint8 green
property uint8 blue
end_header
-0.013578700833022594 0.03446401655673981 -0.5406504273414612 199 170 106
0.08287082612514496 -0.08907565474510193 -0.5560100674629211 248 228 152
-0.10403479635715485 0.1403464823961258 -0.6010659337043762 255 254 204
-0.12284419685602188 -0.0500713586807251 -0.5500941872596741 227 186 115
-0.12772776186466217 0.06892314553260803 -0.5931852459907532 233 214 180
0.13503395020961761 -0.04479937255382538 -0.5825807452201843 175 197 136
0.05759324133396149 -0.08995707333087921 -0.5509344339370728 215 221 139
0.13736210763454437 -0.030119791626930237 -0.6094062924385071 254 254 254
0.08293380588293076 0.013111889362335205 -0.5504566431045532 247 226 133
-0.15019790828227997 -0.07605317234992981 -0.5858324766159058 255 252 198
-0.07230673730373383 0.09511987864971161 -0.558304488658905 168 159 89
-0.09882666915655136 -0.10402879118919373 -0.6056279540061951 190 186 193
0.13545741140842438 -0.08925414085388184 -0.6141276955604553 103 62 26
-0.09154350310564041 -0.0012198835611343384 -0.5423672795295715 235 214 128
-0.1497928351163864 -0.07205553352832794 -0.5883995294570923 231 207 164
-0.03580240160226822 -0.1142052412033081 -0.554361879825592 18 108 34
-0.13953280448913574 0.02094726264476776 -0.5537126064300537 213 211 111
0.11084186285734177 -0.07500886917114258 -0.558755099773407 223 231 145
0.09705616533756256 0.07613903284072876 -0.5723688006401062 85 179 88
0.1139741763472557 -0.09377697110176086 -0.684647262096405 173 171 176
0.04069800302386284 -0.08388672769069672 -0.5464531183242798 218 227 137
0.12386166304349899 0.006994321942329407 -0.625452995300293 250 229 208
-0.03061545081436634 -0.1302851438522339 -0.614517331123352 95 75 54
-0.14274536073207855 0.003242582082748413 -0.5245981812477112 201 181 147
0.07197576761245728 0.08898342400789261 -0.5637655854225159 182 166 106
0.12110905349254608 -0.08190222084522247 -0.699020266532898 77 41 19
-0.046753451228141785 -0.08739227056503296 -0.543757975101471 227 218 132
0.1358628123998642 -0.0934283435344696 -0.6227477788925171 69 43 18
0.12732435762882233 -0.09254182875156403 -0.7203007340431213 254 254 254
0.1324218511581421 -0.023437783122062683 -0.5459067225456238 84 40 15
0.048078976571559906 -0.01350337266921997 -0.5412498712539673 242 224 138
0.04435284808278084 -0.10159489512443542 -0.5531281232833862 234 225 146
-0.1450101137161255 0.0031651705503463745 -0.5985128879547119 196 169 133
-0.015011084266006947 -0.1327439546585083 -0.6063746809959412 208 191 168
0.08124987035989761 0.13665024936199188 -0.6083226203918457 255 254 172
0.1358453333377838 -0.035467371344566345 -0.612982451915741 254 254 254
0.03388968110084534 -0.11932170391082764 -0.5702139735221863 208 196 155
0.11463518440723419 -0.07953175902366638 -0.5633299946784973 126 251 135
-0.017585856840014458 -0.0037357211112976074 -0.5361129641532898 254 233 145
-0.09453804045915604 0.08317463845014572 -0.5605303049087524 2 137 22
0.12963618338108063 -0.07794643938541412 -0.5800036191940308 159 219 144
0.06825152784585953 -0.10164833068847656 -0.5588295459747314 172 207 121
0.10315225273370743 -0.09504923224449158 -0.6104117035865784 254 244 208
-0.1290205717086792 -0.06706872582435608 -0.5516544580459595 161 156 87
-0.09222511947154999 -0.09623552858829498 -0.5527854561805725 200 206 125
0.12548913061618805 -0.08110232651233673 -0.6748881936073303 252 251 254
-0.15053758025169373 -0.023635759949684143 -0.5883538126945496 136 116 85
-0.10461879521608353 -0.07231630384922028 -0.5458516478538513 249 223 134
0.025424592196941376 -0.1274053156375885 -0.6206781268119812 243 251 254
-0.10447679460048676 0.08990336209535599 -0.560548722743988 151 172 103
0.08724874258041382 0.07438071817159653 -0.5636306405067444 179 170 103
-0.12261401116847992 0.08091580867767334 -0.6075742244720459 203 174 133
0.042243342846632004 -0.08978012204170227 -0.5484395623207092 250 232 144
-0.15200769901275635 -0.007327273488044739 -0.6186131834983826 208 182 143
-0.10082297027111053 -0.007731020450592041 -0.5438730716705322 220 202 122
-0.11089979857206345 0.10737060010433197 -0.5682615041732788 20 19 6
0.013615639880299568 0.0375593826174736 -0.5428582429885864 199 172 110
0.12669342756271362 -0.06707869470119476 -0.5657330751419067 193 217 127
-0.12261385470628738 0.12926524877548218 -0.6028989553451538 253 236 185
-0.11348684877157211 0.1374703347682953 -0.6001937985420227 255 255 206
-0.03145453706383705 0.09295210987329483 -0.5546784996986389 160 157 88
0.11487381160259247 -0.09411638975143433 -0.6212202310562134 56 42 27
0.13245217502117157 -0.03515113890171051 -0.5674231052398682 254 254 254
-0.13788512349128723 -0.005015939474105835 -0.5176130533218384 39 18 4
-0.11618519574403763 0.130257710814476 -0.5547579526901245 67 45 28
-0.050163500010967255 0.14365534484386444 -0.579014778137207 86 167 67
0.1250292956829071 0.0012536197900772095 -0.6268448233604431 254 254 231
-0.08109738677740097 -0.08207133412361145 -0.5454328656196594 214 225 141
-0.030147308483719826 -0.042200565338134766 -0.535900890827179 254 231 144
-0.016539696604013443 -0.031687140464782715 -0.535316526889801 250 231 139
0.08386735618114471 0.17213252186775208 -0.35850054025650024 236 237 251
-0.14597702026367188 0.014342308044433594 -0.5734500885009766 184 140 81
0.10155867040157318 0.13160496950149536 -0.5437765717506409 254 254 254
-0.05517208203673363 -0.05307483673095703 -0.537849485874176 229 218 129
0.040849409997463226 0.022267252206802368 -0.5440751314163208 142 133 82
0.12609954178333282 0.023185446858406067 -0.6176466345787048 254 254 253
-0.11430387943983078 0.012419864535331726 -0.4519449472427368 255 254 254
0.06792012602090836 0.1751522421836853 -0.3438829183578491 236 239 253
-0.10978373885154724 0.1384148895740509 -0.5682210922241211 254 236 188
-0.021813740953803062 0.17993150651454926 -0.32908201217651367 104 104 95
0.07498730719089508 -0.0021400898694992065 -0.5471540093421936 218 207 120
0.044853147119283676 0.0024034231901168823 -0.5421374440193176 236 217 133
0.05201699584722519 -0.03758463263511658 -0.5415496230125427 254 241 151
0.075755275785923 0.06509192287921906 -0.5585048794746399 188 175 110
0.04484482482075691 0.016091763973236084 -0.5437434911727905 202 194 116
-0.13544994592666626 -0.10144445300102234 -0.6091340780258179 70 36 0
-0.08158944547176361 0.13482843339443207 -0.6098641157150269 239 216 170
0.12738770246505737 -0.03496968746185303 -0.5624052286148071 128 105 68
0.13199760019779205 -0.07230646908283234 -0.5937533378601074 58 39 21
0.05279998481273651 -0.061043813824653625 -0.5434198975563049 250 232 148
0.12120266258716583 -0.0908394455909729 -0.5930553078651428 33 7 4
-0.1327362209558487 -0.0754154771566391 -0.5539669990539551 192 192 107
0.014920247718691826 0.017717882990837097 -0.5399118661880493 202 174 113
0.13530713319778442 -0.057067543268203735 -0.5952895879745483 249 253 244
-0.140297532081604 -0.07321880757808685 -0.5625250339508057 112 139 64
0.12950396537780762 -0.09056738018989563 -0.6160382628440857 3 0 0
-0.038725707679986954 0.14539478719234467 -0.5754268169403076 93 170 70
-0.1467101126909256 -0.022217363119125366 -0.5767338275909424 239 214 148
-0.13577750325202942 -0.036786019802093506 -0.5561390519142151 235 206 197
-0.006741355638951063 -0.1340377926826477 -0.6078720688819885 138 118 97
-0.12756919860839844 0.022546812891960144 -0.47706159949302673 205 204 239
-0.09725236147642136 0.17197349667549133 -0.3523780107498169 191 212 247
0.1335274577140808 0.013763055205345154 -0.5756272077560425 239 223 164
0.1285131275653839 -0.091194748878479 -0.669127345085144 163 135 118
-0.12966977059841156 -0.025217905640602112 -0.5383284687995911 160 125 95
0.015920542180538177 -0.07059413194656372 -0.5405287146568298 254 236 149
-0.14635112881660461 -0.04934731125831604 -0.5677794218063354 151 131 71
0.13024994730949402 -0.09180869162082672 -0.728988528251648 254 250 249
-0.0035923910327255726 0.14634814858436584 -0.590399980545044 80 160 64
-0.03407581150531769 -0.010714292526245117 -0.5360041856765747 228 210 125
-0.025860510766506195 0.09270121157169342 -0.5545410513877869 192 168 99
0.1398600935935974 -0.10096868872642517 -0.7238854169845581 255 254 254
-0.11765765398740768 -0.015024125576019287 -0.544055163860321 249 236 240
-0.12605561316013336 0.026490330696105957 -0.4589948058128357 254 215 99
0.12822553515434265 -0.08039140701293945 -0.6034500002861023 3 1 28
0.019212806597352028 -0.06530410051345825 -0.5399220585823059 232 225 136
0.07997386157512665 -0.025614500045776367 -0.5467076897621155 254 239 154
0.12966760993003845 0.02137698233127594 -0.5894278287887573 202 223 159
-0.13814330101013184 0.0033731460571289062 -0.516689121723175 228 206 163
0.09084413200616837 0.13092553615570068 -0.5411564111709595 242 208 189
-0.12807826697826385 0.06920812278985977 -0.4619460999965668 70 45 49
-0.06993402540683746 0.12926673889160156 -0.570991039276123 131 254 114
-0.11270400881767273 0.03861650824546814 -0.455789178609848 254 254 254
-0.15046310424804688 -0.09614819288253784 -0.6247113347053528 58 36 14
0.1349794715642929 0.002412647008895874 -0.5501053333282471 254 254 254
0.1350884735584259 -0.007674902677536011 -0.5433053374290466 81 30 0
0.08517759293317795 0.12242846190929413 -0.5787317156791687 112 96 47
-0.06163560226559639 0.18373337388038635 -0.353464275598526 224 206 162
-0.07110229879617691 0.008630409836769104 -0.5407600402832031 232 227 128
-0.05881248041987419 -0.025802388787269592 -0.536936342716217 254 230 141
-0.06896784156560898 0.17558902502059937 -0.33991777896881104 197 191 194
0.10746948421001434 0.11817404627799988 -0.6580255031585693 254 254 254
-0.11196412891149521 -0.10122019052505493 -0.5924761295318604 219 183 150
0.1020074412226677 0.10690050572156906 -0.5840892791748047 171 167 112
-0.0427512489259243 0.15497860312461853 -0.42721253633499146 11 11 3
0.10721943527460098 0.17188690602779388 -0.39128029346466064 197 174 126
-0.09089237451553345 0.12714256346225739 -0.5281524062156677 198 193 199
-0.07644891738891602 0.13777664303779602 -0.4484383165836334 138 143 95
0.09806520491838455 0.12791147828102112 -0.531132161617279 215 220 236
-0.14677469432353973 0.000854000449180603 -0.5857234597206116 89 115 50
-0.044892724603414536 0.18502865731716156 -0.3349587023258209 228 209 164
0.11090174317359924 0.0801079198718071 -0.5784561634063721 252 233 165
0.10850463807582855 -0.02509714663028717 -0.552940845489502 185 164 140
-0.033994100987911224 0.18645985424518585 -0.3306657075881958 232 213 168
-0.0854533314704895 0.18247580528259277 -0.3454403281211853 229 210 164
0.08401447534561157 0.16065429151058197 -0.39634108543395996 254 245 194
0.006399120204150677 -0.12951186299324036 -0.588762104511261 61 48 6
0.09921049326658249 0.13569337129592896 -0.5576891899108887 255 245 202
-0.02689092792570591 0.18679213523864746 -0.3281973600387573 233 214 170
0.08910350501537323 0.14006106555461884 -0.5070841312408447 34 86 204
-0.12896457314491272 0.04768092930316925 -0.5655802488327026 171 244 115
0.12209834158420563 -0.02162925899028778 -0.5446734428405762 226 212 206
0.07883355766534805 0.15338201820850372 -0.4058448374271393 214 216 162
-0.14474615454673767 -0.0013748407363891602 -0.5501287579536438 207 192 148
-0.051800623536109924 0.18400762975215912 -0.3489375114440918 218 195 153
-0.1329069286584854 -0.08817857503890991 -0.6964572668075562 191 203 223
0.09166458994150162 0.17885589599609375 -0.3767905831336975 218 201 161
-0.035864539444446564 0.18705010414123535 -0.3246133029460907 233 213 165
-0.07969897240400314 0.1820671558380127 -0.3585331439971924 228 209 163
-0.036205779761075974 0.18797388672828674 -0.34108370542526245 220 201 158
-0.05100526660680771 -0.017572671175003052 -0.5366597175598145 254 217 137
-0.0682382807135582 0.18373724818229675 -0.3557586669921875 223 205 161
0.040484264492988586 0.05417294055223465 -0.5497504472732544 148 149 97
-0.026593364775180817 -0.1291724443435669 -0.6010400652885437 70 41 13
-0.1433211863040924 -0.0673382431268692 -0.5606357455253601 115 130 62
0.1288275271654129 -0.06652045249938965 -0.5672539472579956 229 216 126
0.08085652440786362 0.07184579223394394 -0.5613958239555359 177 172 105
0.045361340045928955 0.05109710991382599 -0.5496816039085388 175 154 105
-0.11831483989953995 0.022648409008979797 -0.48867642879486084 161 153 145
-0.0023145026061683893 -0.1168292760848999 -0.5548204779624939 148 193 109
-0.020843034610152245 -0.12453460693359375 -0.5705904960632324 181 173 134
-0.09062241017818451 -0.079170361161232 -0.5453893542289734 254 219 141
-0.025185734033584595 0.03509007394313812 -0.5410645008087158 202 173 106
0.1367349475622177 -0.026314154267311096 -0.6188129186630249 142 112 80
-0.10324513912200928 0.12450724840164185 -0.5710287094116211 145 124 127
-0.11796792596578598 0.02662886679172516 -0.4743127226829529 248 254 254
0.009303219616413116 -0.07236239314079285 -0.5402297377586365 243 232 142
-0.1273551732301712 0.037421271204948425 -0.44942793250083923 255 255 225
-0.13258686661720276 0.02586880326271057 -0.4660350978374481 193 169 136
0.13536904752254486 -0.10500684380531311 -0.7189892530441284 255 255 255
-0.050399329513311386 -0.08158040046691895 -0.5425356030464172 252 225 142
0.08626563102006912 0.08347491174936295 -0.5660954117774963 217 170 117
0.13210958242416382 -0.011331692337989807 -0.5732165575027466 20 62 12
-0.10392341017723083 0.11543266475200653 -0.5708005428314209 160 139 84
0.12086091935634613 -0.02348943054676056 -0.55189448595047 251 177 105
-0.0236209724098444 -0.047447144985198975 -0.5361819267272949 254 230 143
0.1193021610379219 -0.09769861400127411 -0.7062816023826599 80 75 77
-0.11768985539674759 0.10327665507793427 -0.5814472436904907 172 149 79
-0.04956207424402237 -0.006266206502914429 -0.5372378826141357 236 218 132
0.08361442387104034 0.0013935714960098267 -0.5495540499687195 211 196 114
0.08858577907085419 0.12486611306667328 -0.5561814308166504 192 197 225
0.10099536925554276 0.12443915754556656 -0.5736207962036133 218 227 254
-0.1216525286436081 0.125948965549469 -0.6689852476119995 118 111 110
0.11328601092100143 -0.10041329264640808 -0.6019831895828247 103 71 43
0.07872331887483597 -0.039102599024772644 -0.5465609431266785 246 240 147
-0.14388133585453033 -0.11062034964561462 -0.7150449156761169 247 254 254
0.10780545324087143 0.16806472837924957 -0.40768253803253174 186 160 104
-0.12271895259618759 0.0266488716006279 -0.44693151116371155 76 29 2
0.007583162281662226 -0.032308951020240784 -0.5362353324890137 229 224 134
-0.10318148136138916 0.16915357112884521 -0.36198854446411133 57 84 187
0.06953614950180054 0.17502549290657043 -0.3466314971446991 237 240 253
-0.13160862028598785 0.038315340876579285 -0.46169623732566833 234 212 166
-0.08405046910047531 0.18250098824501038 -0.3436281979084015 255 254 205
-0.08339947462081909 0.17451757192611694 -0.34428051114082336 230 237 254
0.13072523474693298 0.013420149683952332 -0.5299493074417114 254 254 254
-0.060835689306259155 0.14638610184192657 -0.4021124541759491 0 78 9
-0.026607360690832138 0.1794925183057785 -0.33056002855300903 116 106 107
-0.12345851212739944 0.044548436999320984 -0.4451742172241211 254 219 143
-0.11161086708307266 0.061773285269737244 -0.44452497363090515 82 184 87
-0.098256416618824 0.1705978810787201 -0.3675287365913391 169 168 179
0.09679035097360611 0.12679433822631836 -0.5514055490493774 86 84 60
-0.14458242058753967 -0.0012556761503219604 -0.5421637296676636 199 175 136
0.0626683384180069 0.12852270901203156 -0.6014488935470581 42 67 35
-0.04310208186507225 0.14818499982357025 -0.4453352987766266 12 2 0
-0.08249209821224213 0.1253535896539688 -0.5340809226036072 196 197 210
-0.08439356088638306 0.17097465693950653 -0.3565634787082672 227 231 246
0.10780230164527893 0.14338460564613342 -0.5062111020088196 254 254 254
-0.011938586831092834 -0.04155910015106201 -0.5357349514961243 235 225 135
-0.14968597888946533 -0.08813127875328064 -0.7177486419677734 201 173 133
-0.14039599895477295 -0.0983341634273529 -0.7187538743019104 216 228 254
-0.12063334882259369 0.13573040068149567 -0.6024445295333862 8 0 0
-0.009114272892475128 0.18052342534065247 -0.3292286694049835 66 79 106
0.009743799455463886 -0.010671719908714294 -0.536807656288147 250 216 134
-0.12904350459575653 0.04267309606075287 -0.45051807165145874 254 239 203
-0.04654878005385399 0.18827570974826813 -0.3258490264415741 234 195 149
0.05894755572080612 0.09606572985649109 -0.5631551146507263 181 179 112
0.07658014446496964 0.18239353597164154 -0.35948655009269714 238 218 173
0.08945005387067795 0.1814231276512146 -0.3526533544063568 236 216 172
0.05121084675192833 0.18768590688705444 -0.3289561867713928 229 208 161
0.07623446732759476 0.1635797619819641 -0.3774513900279999 188 205 143
0.12674148380756378 0.021490752696990967 -0.511471688747406 192 178 137
0.03275338560342789 0.18497216701507568 -0.3333667516708374 69 50 33
-0.03909999877214432 0.1849282830953598 -0.32253700494766235 255 255 221
0.11375623196363449 -0.0046140700578689575 -0.5293322801589966 237 215 213
-0.03190665319561958 0.1386518031358719 -0.5215950012207031 195 177 138
-0.10765819996595383 0.0859910398721695 -0.446923166513443 237 239 156
-0.0862676203250885 0.17669953405857086 -0.3512013852596283 232 242 254
-0.10548394918441772 0.16528628766536713 -0.39394116401672363 190 164 127
-0.11519190669059753 0.13581275939941406 -0.4942439794540405 211 184 137
0.0007422034977935255 -0.04067578911781311 -0.5361424088478088 238 228 133
-0.11674566566944122 0.12617376446723938 -0.7192118167877197 198 165 183
0.08476901799440384 0.12431566417217255 -0.6926219463348389 222 202 155
-0.04792787879705429 0.12736353278160095 -0.48281538486480713 241 192 160
0.10512272268533707 0.15788501501083374 -0.4200868606567383 191 181 197
0.0930691733956337 0.15953023731708527 -0.446851909160614 211 194 154
-0.09769096225500107 0.14710070192813873 -0.4928025007247925 202 185 144
-0.12469954788684845 0.0959494411945343 -0.4544341564178467 13 110 28
0.03746667131781578 0.18400146067142487 -0.3229610025882721 254 254 254
0.1101258397102356 0.07629860192537308 -0.5690246820449829 52 244 146
-0.022147469222545624 0.16871009767055511 -0.3750154972076416 24 18 0
-0.1087397113442421 0.09485717117786407 -0.4463207423686981 253 249 156
0.0862058475613594 -0.09531186521053314 -0.559955894947052 200 214 131
-0.0758591890335083 -0.11668074131011963 -0.6088151335716248 104 81 58
-0.12139153480529785 0.006151556968688965 -0.5063464045524597 254 254 255
0.07397552579641342 0.06963571906089783 -0.5592213273048401 181 177 108
-0.04943401739001274 -0.12336724996566772 -0.6055738925933838 244 243 252
0.09022276848554611 -0.08625774085521698 -0.5812778472900391 20 3 0
-0.10090180486440659 -0.10322165489196777 -0.5988929271697998 34 26 20
-0.008168558590114117 0.014407902956008911 -0.5378410816192627 179 163 100
0.12785816192626953 -0.0482938289642334 -0.5680276155471802 198 211 126
0.13857147097587585 -0.021481290459632874 -0.6188782453536987 53 28 11
0.02435098960995674 0.09857314825057983 -0.558746337890625 142 141 85
0.10937855392694473 0.13614186644554138 -0.6451629400253296 75 46 28
0.10149164497852325 0.1356516033411026 -0.5471819043159485 255 254 212
-0.07486748695373535 -0.09660300612449646 -0.549932599067688 192 205 123
-0.08419044315814972 0.008064121007919312 -0.5421934127807617 250 226 135
0.030840134248137474 -0.12499770522117615 -0.6153957843780518 189 201 240
-0.058374371379613876 -0.08209431171417236 -0.5431841015815735 240 222 138
-0.05008132755756378 0.1197899580001831 -0.5642216205596924 254 225 135
-0.08339761197566986 0.07475493848323822 -0.5544620752334595 193 170 100
0.11920341849327087 -0.09670071303844452 -0.6879496574401855 90 82 77
-0.11466977000236511 0.11541734635829926 -0.5815455913543701 0 1 0
-0.12627191841602325 0.06626269221305847 -0.5710343718528748 51 202 65
-0.11838165670633316 -0.01046694815158844 -0.5376461148262024 254 248 253
-0.000815065810456872 0.18381541967391968 -0.30943524837493896 254 248 211
-0.14584892988204956 -0.09260378777980804 -0.5965745449066162 157 130 105
0.04163104668259621 0.12702324986457825 -0.5327615141868591 217 223 244
0.13550375401973724 -0.012819409370422363 -0.6169041991233826 94 67 32
-0.14689528942108154 -0.03507338464260101 -0.5604381561279297 208 183 154
-0.13849622011184692 -0.005766570568084717 -0.5186893939971924 30 13 0
0.10456328094005585 0.1654827892780304 -0.38502293825149536 230 235 254
-0.07360202819108963 0.0389229878783226 -0.545226514339447 186 167 100
-0.14810673892498016 -0.022137567400932312 -0.5482045412063599 195 165 153
-0.06371679902076721 -0.0017401278018951416 -0.5388336777687073 234 217 129
-0.14519524574279785 -0.016764387488365173 -0.5462859869003296 61 29 7
0.10430697351694107 0.13457390666007996 -0.7321484088897705 255 255 254
0.018691031262278557 -0.08161139488220215 -0.5431058406829834 241 229 145
-0.148634672164917 -0.08199222385883331 -0.6378363370895386 189 164 129
-0.07740134745836258 0.17537523806095123 -0.34362053871154785 169 159 156
0.1205785870552063 0.028415054082870483 -0.4668634235858917 254 253 241
0.049870483577251434 0.1342068314552307 -0.5748894810676575 241 222 128
-0.10058251768350601 0.14660844206809998 -0.4851568341255188 208 190 146
0.05259653553366661 0.1770898699760437 -0.35365545749664307 189 167 128
-0.04546969011425972 0.17675432562828064 -0.33672016859054565 139 119 107
-0.11381033062934875 0.13169953227043152 -0.509001612663269 212 222 253
-0.009029518812894821 -0.1304890513420105 -0.5938113927841187 46 22 0
0.1252232789993286 0.013869374990463257 -0.5654557347297668 127 254 117
0.09986181557178497 0.1360929012298584 -0.6688428521156311 213 189 143
-0.07364781200885773 0.13806642591953278 -0.4429791569709778 157 155 107
0.10464920103549957 0.13884182274341583 -0.5237526893615723 217 220 186
-0.11693283915519714 0.11547622829675674 -0.45304927229881287 3 124 7
-0.12606322765350342 0.006387263536453247 -0.4525737762451172 249 251 239
-0.10954206436872482 0.12325070798397064 -0.5668612718582153 159 150 151
-0.1379881054162979 -0.03255385160446167 -0.5440473556518555 145 115 91
0.10334381461143494 0.12838850915431976 -0.5505483150482178 254 252 211
-0.0071465750224888325 -0.11174735426902771 -0.551105797290802 195 211 130
-0.092007115483284 0.12906089425086975 -0.5214604735374451 114 72 32
0.06903527677059174 0.13403986394405365 -0.5197414755821228 146 166 202
0.11381349712610245 0.0049927085638046265 -0.5161367654800415 188 171 154
0.043612003326416016 0.12503281235694885 -0.5702149868011475 242 223 133
0.09488816559314728 0.13068433105945587 -0.743833065032959 120 83 67
0.05315916985273361 0.12923738360404968 -0.5389597415924072 167 151 128
0.03197688236832619 0.13047179579734802 -0.5202006101608276 135 117 117
0.11735529452562332 0.055064596235752106 -0.5740231275558472 44 199 61
-0.00043007012573070824 0.1821146011352539 -0.3196156919002533 43 28 43
0.10522864013910294 0.15354520082473755 -0.4635095000267029 197 173 115
0.06035786122083664 0.18275444209575653 -0.33955177664756775 229 209 166
-0.06278636306524277 0.1779162585735321 -0.3320089876651764 255 254 205
-0.10829096287488937 0.1522442102432251 -0.42980051040649414 198 205 241
0.02692955732345581 0.155854269862175 -0.4291241466999054 8 31 0
0.011883069761097431 0.18196997046470642 -0.30978453159332275 17 0 0
-0.10412918776273727 0.1618252694606781 -0.42022180557250977 208 190 147
-0.035563331097364426 0.18883059918880463 -0.32123205065727234 255 255 216
0.10394559055566788 0.14696715772151947 -0.49066194891929626 212 194 153
0.11862770467996597 -0.0035988837480545044 -0.5286855101585388 213 208 223
-0.041924312710762024 0.13129444420337677 -0.4483483135700226 205 184 140
-0.011285541579127312 0.18539482355117798 -0.3253138065338135 233 214 166
0.04882318526506424 0.1557609885931015 -0.38706496357917786 10 133 44
0.03836510330438614 0.18243126571178436 -0.32105645537376404 255 255 197
-0.06541752815246582 0.13273808360099792 -0.48731452226638794 251 202 173
0.12210750579833984 0.029164187610149384 -0.46966928243637085 254 254 253
-0.09638042747974396 0.14693766832351685 -0.47037768363952637 167 173 193
-0.05979368835687637 0.17811264097690582 -0.32991451025009155 252 149 230
-0.02778320200741291 0.12933096289634705 -0.4629903733730316 178 170 128
-0.015099732205271721 0.15471914410591125 -0.3693634867668152 219 187 146
0.09996600449085236 0.14213329553604126 -0.631640613079071 243 214 173
0.07582121342420578 0.15296323597431183 -0.45809343457221985 203 187 147
-0.021928004920482635 0.12833929061889648 -0.4744628667831421 181 172 129
0.07763218134641647 0.14322005212306976 -0.44089898467063904 208 211 158
-0.1007213294506073 0.1252954751253128 -0.4703398644924164 235 244 254
0.10640528798103333 0.1399827003479004 -0.516386091709137 192 170 121
0.08148162066936493 0.14627231657505035 -0.4416460692882538 188 202 143
-0.1051282063126564 0.13179919123649597 -0.4553834795951843 52 29 16
0.024690980091691017 0.17807674407958984 -0.3319641947746277 222 225 238
-0.1230771541595459 0.08765071630477905 -0.44490814208984375 220 208 114
0.02233962155878544 0.17228087782859802 -0.34624963998794556 254 209 162
-0.03369632735848427 0.13520997762680054 -0.5189456343650818 189 188 202
0.08351948112249374 0.14389994740486145 -0.46263808012008667 188 164 121
-0.030155371874570847 0.14444725215435028 -0.5999559760093689 82 141 52
-0.05769691243767738 0.16912777721881866 -0.3600841164588928 62 101 53
0.06019136309623718 0.17481955885887146 -0.34788769483566284 236 239 254
-0.08138438314199448 0.1499919891357422 -0.4209846556186676 235 167 131
0.09445872157812119 0.14435598254203796 -0.4850434362888336 70 97 111
0.044146839529275894 0.16407106816768646 -0.40103238821029663 9 4 0
0.07630687952041626 0.1810675859451294 -0.3545719087123871 237 217 171
0.0375046469271183 0.17695730924606323 -0.33121457695961 253 253 254
-0.11437316983938217 0.07606205344200134 -0.4432554244995117 216 224 130
0.0364629290997982 0.1509983241558075 -0.4370660185813904 2 1 0
0.025355637073516846 0.16708500683307648 -0.38872846961021423 6 0 1
0.0056192921474576 0.16487890481948853 -0.38871222734451294 32 0 0
0.034489721059799194 0.1325877606868744 -0.5353338718414307 190 174 136
0.05481228604912758 -0.11251461505889893 -0.5675521492958069 209 194 158
0.002799313049763441 -0.12248173356056213 -0.562297523021698 213 198 157
-0.14886686205863953 0.008522078394889832 -0.6074750423431396 59 31 11
0.05612436681985855 0.13902704417705536 -0.607822835445404 254 239 187
-0.08105058968067169 -0.0022071748971939087 -0.5406740307807922 220 211 125
-0.0695514976978302 0.12519600987434387 -0.5352670550346375 195 197 214
0.12117721885442734 -0.08975303173065186 -0.715614378452301 254 254 254
-0.07578635215759277 0.06282299011945724 -0.5504748225212097 203 167 101
0.11264606565237045 -0.08423683047294617 -0.7036203742027283 115 101 83
-0.13119104504585266 0.026145510375499725 -0.4503929615020752 254 254 191
-0.12488198280334473 0.12981294095516205 -0.6509386301040649 101 86 72
0.10343489050865173 0.12895916402339935 -0.5632759928703308 255 254 254
-0.002739784074947238 -0.13178938627243042 -0.6034498810768127 89 63 37
-0.11611907929182053 0.015033021569252014 -0.4508326053619385 255 255 254
0.108436219394207 0.1371152549982071 -0.6358932256698608 71 23 2
0.10118360817432404 0.13031405210494995 -0.7583689093589783 254 247 204
0.07572557032108307 0.12501798570156097 -0.5428527593612671 89 75 61
-0.07354597002267838 0.12515874207019806 -0.5351394414901733 187 194 213
-0.14190685749053955 -0.0950155258178711 -0.6345164775848389 254 227 161
0.018252592533826828 0.15198221802711487 -0.37545451521873474 251 248 211
0.1292707622051239 0.013783112168312073 -0.4607117772102356 255 254 254
-0.10788113623857498 0.06885822862386703 -0.4560210704803467 151 188 123
0.03642425686120987 0.17185063660144806 -0.3523062765598297 102 230 120
-0.0578213706612587 0.12709160149097443 -0.5277102589607239 190 193 209
0.13000528514385223 -0.0036242902278900146 -0.5260453820228577 250 214 173
0.0033329499419778585 -0.02728535234928131 -0.5358936190605164 250 233 145
-0.12318205833435059 0.11229491233825684 -0.4562619924545288 222 206 169
0.09210482984781265 0.125369131565094 -0.7126209139823914 207 170 101
-0.04532955214381218 0.18225505948066711 -0.3224751055240631 255 254 90
0.10331296175718307 0.1479947865009308 -0.48617076873779297 214 196 154
0.08582280576229095 0.17564983665943146 -0.3762335777282715 107 83 63
0.10589561611413956 0.13036030530929565 -0.5608339905738831 55 31 6
-0.11488994210958481 0.13392861187458038 -0.5037927627563477 188 163 118
0.038354285061359406 0.1437806934118271 -0.5806900858879089 92 164 68
-0.12073951214551926 0.13575205206871033 -0.6158325672149658 12 3 0
0.09851456433534622 0.11965348571538925 -0.5803228616714478 125 121 115
-0.07407533377408981 0.18391156196594238 -0.3390922248363495 255 255 217
0.10414844006299973 0.15455731749534607 -0.45937222242355347 207 189 150
0.12330976873636246 0.02084045112133026 -0.46871218085289 254 254 254
-0.06343581527471542 0.16028864681720734 -0.371184378862381 81 101 47
0.019619964063167572 0.08634120970964432 -0.5544992089271545 200 179 114
0.011284148320555687 0.14141599833965302 -0.5731508731842041 240 220 125
0.0078020961955189705 0.17044149339199066 -0.3719043433666229 20 1 0
0.11688931286334991 0.1119113638997078 -0.4785141050815582 255 255 254
0.11908990889787674 0.0010178536176681519 -0.5309562087059021 160 140 108
0.04266047850251198 0.14407071471214294 -0.4690192639827728 5 38 2
-0.13338977098464966 0.12334922701120377 -0.7264177203178406 254 231 203
0.04261566326022148 0.1321265995502472 -0.4464569687843323 196 176 136
-0.08266995847225189 0.1520431786775589 -0.4201244115829468 20 71 32
0.10758943855762482 0.03963647037744522 -0.46154674887657166 172 152 122
-0.04430690035223961 0.1497780978679657 -0.38412943482398987 203 178 137
0.12632441520690918 0.04393688589334488 -0.46056580543518066 255 254 253
0.042464159429073334 0.15088507533073425 -0.4353099763393402 15 62 18
-0.02031031623482704 0.13307315111160278 -0.4413444697856903 192 187 139
-0.10688116401433945 0.11629359424114227 -0.45304909348487854 219 181 191
-0.15213951468467712 -0.033803701400756836 -0.6064752340316772 46 22 7
-0.02145399898290634 0.18551962077617645 -0.31136077642440796 4 0 0
0.10139162838459015 0.07941628247499466 -0.46926888823509216 229 215 179
0.007189065683633089 0.12929823994636536 -0.46541696786880493 81 115 69
0.028681179508566856 0.12476730346679688 -0.5438156127929688 195 192 221
0.027908340096473694 0.14406439661979675 -0.3978213369846344 170 172 123
-0.0015758087392896414 0.18209049105644226 -0.3157544732093811 23 2 0
0.06247790902853012 0.14313124120235443 -0.4161585569381714 190 192 143
0.03046414442360401 0.16816672682762146 -0.35217541456222534 225 204 148
-0.005211928393691778 0.12484601140022278 -0.5476256608963013 167 160 175
0.11711947619915009 0.00998261570930481 -0.4561266601085663 254 220 158
0.07129532098770142 0.13777996599674225 -0.44834229350090027 199 191 143
-0.10273019969463348 0.1241534948348999 -0.45779910683631897 234 240 254
0.12571288645267487 0.05179435759782791 -0.4645027220249176 70 140 40
0.03886382281780243 0.13844504952430725 -0.5037490129470825 197 182 141
0.04964952915906906 0.14996904134750366 -0.4452943801879883 3 2 0
0.11873025447130203 0.04889099299907684 -0.5970512628555298 205 245 205
0.03693878650665283 0.16815578937530518 -0.3587556481361389 115 247 130
0.12649892270565033 0.04576905816793442 -0.46171835064888 254 254 254
0.10659975558519363 0.13915905356407166 -0.4770108461380005 255 255 254
-0.0011816575424745679 0.13204962015151978 -0.45517274737358093 0 78 12
0.054257262498140335 -0.11164221167564392 -0.5629891753196716 184 192 144
-0.14634265005588531 0.017356082797050476 -0.6140987873077393 221 197 154
-0.00412345863878727 -0.117605060338974 -0.5552278161048889 173 198 117
0.01944628730416298 -0.1264607310295105 -0.6078887581825256 184 192 216
0.06282724440097809 -0.058625414967536926 -0.5445597171783447 243 235 145
0.1304948329925537 -0.11016809940338135 -0.7200376391410828 191 176 177
-0.11802465468645096 0.010846078395843506 -0.4476557970046997 252 212 182
-0.0210262518376112 -0.06889131665229797 -0.538658857345581 245 223 138
-0.07459284365177155 -0.0835580974817276 -0.5448307991027832 200 212 124
0.05415560305118561 0.12652410566806793 -0.5344541668891907 207 214 229
-0.06567200273275375 -0.009059309959411621 -0.538349449634552 231 213 127
0.10047345608472824 0.14251096546649933 -0.640114963054657 72 49 26
-0.14303641021251678 -0.03495819866657257 -0.5567883253097534 208 183 158
0.001153031480498612 -0.10676431655883789 -0.5490230917930603 203 217 133
-0.14631447196006775 -0.013075903058052063 -0.5405194759368896 62 40 21
0.08546628057956696 -0.08426439762115479 -0.5544849634170532 251 223 147
-0.06673247367143631 0.12268774211406708 -0.5668213367462158 231 203 120
-0.02177141234278679 0.13935893774032593 -0.5711029171943665 240 222 125
-0.05574660748243332 0.14546753466129303 -0.40013203024864197 152 160 110
0.11982183903455734 0.10555121302604675 -0.4624706208705902 232 229 162
0.10090690851211548 0.12309081107378006 -0.6866858601570129 254 254 254
-0.03488598018884659 0.17694205045700073 -0.3348763883113861 222 224 237
-0.11089473962783813 0.041960932314395905 -0.45178842544555664 254 254 242
0.011874467134475708 0.16802893579006195 -0.39576447010040283 201 195 146
-0.08504668623209 0.13408109545707703 -0.5168855786323547 197 194 210
-0.09501899033784866 0.1504073292016983 -0.452442467212677 164 163 179
-0.019797220826148987 -0.12025994062423706 -0.5548217296600342 248 245 133
-0.006728647742420435 0.14636142551898956 -0.5888086557388306 75 163 64
0.1071869358420372 0.11829512566328049 -0.4593329429626465 253 242 224
-0.13053038716316223 0.008465081453323364 -0.45383068919181824 106 70 41
-0.12615641951560974 0.041444458067417145 -0.4525396227836609 75 206 75
0.0633021742105484 0.17299363017082214 -0.3617369532585144 194 169 131
-0.08236163854598999 0.14438559114933014 -0.44144076108932495 206 164 127
-0.11347075551748276 0.13149291276931763 -0.46118810772895813 254 254 213
0.09824684262275696 0.15478520095348358 -0.4253728985786438 57 41 31
0.0665997788310051 0.186018705368042 -0.3381858468055725 236 208 143
-0.04788197949528694 0.18194322288036346 -0.3236141502857208 255 253 51
0.10473190993070602 0.14952346682548523 -0.4814069867134094 210 186 134
0.0852871835231781 0.17290909588336945 -0.36960241198539734 14 5 6
-0.09585301578044891 0.1519864946603775 -0.4291897416114807 204 203 215
0.024565594270825386 0.1450304090976715 -0.584819495677948 81 157 63
0.10272881388664246 0.17174507677555084 -0.3642066419124603 15 7 26
-0.034259479492902756 0.12803944945335388 -0.4905971884727478 2 88 32
-0.10803422331809998 0.15723304450511932 -0.41196486353874207 190 161 119
0.023117950186133385 0.17824271321296692 -0.32072675228118896 70 56 32
0.10520495474338531 0.14034061133861542 -0.46410757303237915 254 254 246
-0.10385268926620483 -0.10082966089248657 -0.5622944831848145 183 168 126
-0.06776764988899231 0.1275373250246048 -0.5687392950057983 210 200 113
0.06273382157087326 0.14976340532302856 -0.3959413766860962 200 194 145
0.09638848900794983 0.1398191601037979 -0.6206369996070862 91 43 1
-0.0032851581927388906 0.13333845138549805 -0.5147553086280823 152 154 226
-0.05198054388165474 0.16331231594085693 -0.36434707045555115 5 81 26
0.11588491499423981 0.00914318859577179 -0.462558388710022 138 112 68
0.017048297449946404 0.1652381420135498 -0.3529823422431946 242 194 155
0.03902984410524368 0.1805921345949173 -0.3397849500179291 148 147 184
0.10789802670478821 0.1425928771495819 -0.5103244185447693 148 108 42
0.061102427542209625 0.14546172320842743 -0.4070930778980255 186 194 140
0.03301883861422539 0.1619202345609665 -0.36091428995132446 199 187 137
0.029959136620163918 0.14008648693561554 -0.41143348813056946 190 174 133
0.12977801263332367 0.01960885524749756 -0.46224239468574524 39 17 1
0.04368849843740463 0.12005623430013657 -0.5684767961502075 251 224 139
-0.021469159051775932 0.11443912237882614 -0.5616920590400696 0 75 21
-0.1116626188158989 0.11196894943714142 -0.44922739267349243 218 223 129
0.10361165553331375 0.17640605568885803 -0.3746989667415619 215 197 157
0.11821702867746353 0.09652157127857208 -0.4618215262889862 117 34 26
0.011782055720686913 0.17162753641605377 -0.3448658585548401 199 190 138
0.1153658777475357 0.018786415457725525 -0.458014577627182 154 121 65
0.12538745999336243 0.0865757167339325 -0.47035396099090576 255 254 244
-0.0033536276314407587 0.14292198419570923 -0.3999170958995819 0 97 15
0.052129436284303665 0.12909461557865143 -0.46509724855422974 194 177 136
0.0057636285200715065 0.14359056949615479 -0.3989441990852356 0 97 19
-0.004279111512005329 0.18164166808128357 -0.33673810958862305 247 226 169
-0.029144668951630592 0.1731543242931366 -0.3504192531108856 44 181 70
-0.015789836645126343 0.1295005977153778 -0.4687670171260834 0 72 21
-0.007258694618940353 0.12695640325546265 -0.5413432717323303 103 97 15
-0.007290983572602272 0.14202186465263367 -0.402561217546463 195 190 144
0.10748579353094101 0.0567101389169693 -0.45469364523887634 181 164 90
0.06371060758829117 0.14102421700954437 -0.42485806345939636 180 189 136
-0.0025480850599706173 0.12371936440467834 -0.5409413576126099 57 49 10
0.01584002561867237 0.09823133051395416 -0.5574336051940918 180 168 104
0.12076959013938904 -0.06335604190826416 -0.5620088577270508 204 197 133
-0.13605056703090668 -0.023234501481056213 -0.5346742272377014 245 240 246
0.10223899036645889 0.17130541801452637 -0.3689896762371063 177 179 203
-0.09192785620689392 0.07198839634656906 -0.5549811124801636 177 164 92
0.1110888347029686 0.08488306403160095 -0.5923498272895813 190 196 133
-0.1231178492307663 -0.041531696915626526 -0.5518471002578735 179 157 90
-0.08586995303630829 0.008182168006896973 -0.5424312353134155 231 218 127
-0.062389347702264786 -0.037200674414634705 -0.537427544593811 254 231 141
0.018666841089725494 0.15921463072299957 -0.3623756170272827 197 179 138
-0.11478258669376373 0.043032288551330566 -0.44629430770874023 212 221 142
0.05114104226231575 0.15535494685173035 -0.3774411976337433 235 205 160
0.10902304202318192 0.07794220000505447 -0.5803300142288208 145 252 144
-0.016323011368513107 0.18095512688159943 -0.33835557103157043 254 218 169
0.04705002158880234 0.1528310924768448 -0.3807315230369568 248 213 170
-0.10407251119613647 0.16877160966396332 -0.36691805720329285 239 211 145
-0.13003399968147278 0.009829729795455933 -0.449411541223526 246 220 176
-0.09438810497522354 0.16882142424583435 -0.36891570687294006 69 59 61
-0.12776954472064972 0.0561092346906662 -0.44557589292526245 237 188 112
-0.08957422524690628 0.1637279987335205 -0.4086127281188965 3 34 66
0.11132577806711197 0.02002488076686859 -0.5016738176345825 161 140 108
-0.09606034308671951 0.1540483981370926 -0.4213314950466156 203 202 213
-0.020343992859125137 0.15277355909347534 -0.3736551105976105 204 183 138
0.12004347145557404 0.028353549540042877 -0.4667260944843292 254 223 129
0.12665227055549622 0.03341244161128998 -0.46464502811431885 254 254 254
0.10742542147636414 0.13480888307094574 -0.5078247785568237 55 51 35
0.002967388369143009 0.1802765429019928 -0.3212675452232361 38 28 40
-0.1066998690366745 0.09239906817674637 -0.44758880138397217 227 237 152
0.0023617097176611423 0.18564411997795105 -0.3051586151123047 254 192 117
0.05713611841201782 0.1535356640815735 -0.38393422961235046 211 199 148
0.023534921929240227 0.1560869812965393 -0.36847928166389465 204 195 147
-0.0250258669257164 0.13870203495025635 -0.41535186767578125 193 182 138
-0.11101772636175156 0.06481435894966125 -0.45420271158218384 97 186 89
0.03651484102010727 0.18993687629699707 -0.32135826349258423 255 255 244
-0.027020180597901344 0.18196728825569153 -0.3191695809364319 0 0 0
0.11787747591733932 0.10233476012945175 -0.4554884731769562 232 227 132
0.10878090560436249 0.12701332569122314 -0.45955976843833923 103 13 0
0.019123798236250877 0.16389939188957214 -0.35508400201797485 252 208 166
0.049369171261787415 0.13454246520996094 -0.43835777044296265 172 180 128
-0.0521550178527832 0.13293902575969696 -0.44401997327804565 0 72 9
0.10626502335071564 0.1468046009540558 -0.49343886971473694 183 151 80
0.12202855199575424 0.014965087175369263 -0.4577934741973877 141 101 71
0.1354576200246811 -0.02148410677909851 -0.548789381980896 100 107 105
0.10605037957429886 0.15569275617599487 -0.45546820759773254 246 245 254
-0.022084379568696022 0.12633618712425232 -0.5282063484191895 117 101 72
-0.049999456852674484 0.125426784157753 -0.5350050926208496 177 188 214
-0.005729909986257553 0.12850967049598694 -0.5164751410484314 212 216 232
0.05651680380105972 0.12876836955547333 -0.4709415137767792 154 160 114
-0.01208516675978899 0.1717364639043808 -0.3421170711517334 176 251 200
0.12281490862369537 0.08612096309661865 -0.47739049792289734 255 255 255
0.010435831733047962 0.17881760001182556 -0.32814064621925354 209 220 246
-0.020997926592826843 0.1389106661081314 -0.41470685601234436 167 184 130
0.003171757096424699 0.14217448234558105 -0.4025282561779022 253 226 179
-0.06910553574562073 0.17249351739883423 -0.3604353964328766 17 79 31
-0.06758532673120499 0.11876708269119263 -0.565509021282196 220 207 117
-0.021972982212901115 -0.13204944133758545 -0.6135047674179077 53 19 1
-0.14689002931118011 -0.09310831129550934 -0.5908114314079285 13 0 0
-0.137789785861969 0.02650633454322815 -0.5530774593353271 254 229 133
0.007004859857261181 -0.09141197800636292 -0.5443081855773926 240 232 143
-0.08745921403169632 -0.06190323829650879 -0.5414605736732483 237 217 130
-0.1319129765033722 0.019508540630340576 -0.4496266543865204 254 254 218
-0.12076383084058762 0.009154245257377625 -0.5219571590423584 207 173 210
0.10965555906295776 0.1213189959526062 -0.7389909029006958 254 254 254
0.01899591088294983 0.15310798585414886 -0.37390726804733276 210 193 147
-0.14878153800964355 -0.008518368005752563 -0.5883159041404724 4 25 3
0.049710892140865326 0.16252605617046356 -0.3760334253311157 2 103 30
-0.06928972154855728 0.13554120063781738 -0.44972869753837585 1 77 7
0.1151106208562851 0.048315420746803284 -0.5747194886207581 47 51 25
-0.13032834231853485 0.020824909210205078 -0.4486599266529083 129 81 43
0.00510281790047884 -0.02296401560306549 -0.5360597372055054 247 231 140
-0.11752317100763321 0.1261836290359497 -0.4561132788658142 254 238 189
0.02054004557430744 0.18844017386436462 -0.32502350211143494 237 217 171
-0.1064915880560875 0.15297865867614746 -0.42654380202293396 77 90 130
-0.04218464717268944 0.1878475397825241 -0.3237244486808777 255 255 210
-0.04837891459465027 0.14911456406116486 -0.3870960772037506 200 179 139
0.06808660179376602 0.028960876166820526 -0.5503312945365906 215 226 142
0.09542318433523178 0.15870301425457 -0.41720491647720337 89 82 76
-0.10782738775014877 0.15319964289665222 -0.42545273900032043 211 214 232
0.13440406322479248 -0.018066048622131348 -0.548115074634552 232 216 193
-0.12580859661102295 0.08566585183143616 -0.4500041902065277 204 160 91
0.12766370177268982 0.03112661838531494 -0.4644376039505005 100 71 40
0.09502334147691727 0.14524678885936737 -0.49803677201271057 205 188 149
-0.017084650695323944 0.1899527609348297 -0.3163602948188782 114 53 10
-0.055370233952999115 0.16532455384731293 -0.3629893362522125 32 98 45
-0.12723460793495178 0.08011060208082199 -0.4509824216365814 170 141 77
-0.03381599485874176 0.13256651163101196 -0.5381720066070557 194 176 140
0.0817456841468811 0.15725278854370117 -0.40040725469589233 222 231 171
0.10515386611223221 0.05324035882949829 -0.4655301570892334 247 233 192
-0.1454240381717682 -0.047255948185920715 -0.5589167475700378 245 230 128
0.12486086785793304 0.013119503855705261 -0.5122336745262146 255 255 255
-0.046552710235118866 0.12457845360040665 -0.5313002467155457 71 58 29
-0.010039343498647213 0.1298554539680481 -0.46127861738204956 231 202 160
-0.013795551843941212 0.1303548514842987 -0.4569137990474701 238 202 166
-0.0017772928113117814 0.054883114993572235 -0.5447801947593689 181 167 102
-0.038289181888103485 -0.11888164281845093 -0.5549665689468384 245 244 160
-0.05191417783498764 -0.11098071932792664 -0.5546625852584839 253 218 137
-0.03067488968372345 -0.07325237989425659 -0.539716362953186 236 225 134
-0.12878887355327606 -0.09065848588943481 -0.5553286075592041 34 72 30
0.009576892480254173 -0.039828822016716 -0.5367289781570435 248 225 138
0.04796254634857178 -0.0984024852514267 -0.5524641871452332 235 229 146
-0.0776948407292366 -0.09349873661994934 -0.5489603877067566 189 207 121
-0.05898423120379448 -0.10138100385665894 -0.5499441027641296 210 208 130
-0.03492840379476547 0.14055617153644562 -0.5717068910598755 212 210 114
0.016664665192365646 0.15468177199363708 -0.3706108033657074 220 205 156
0.07750831544399261 0.14702022075653076 -0.46413570642471313 29 67 4
0.10395914316177368 0.13640370965003967 -0.5700528025627136 255 254 228
0.12294715642929077 0.04440800100564957 -0.5713900923728943 246 235 160
-0.15366114675998688 -0.11191451549530029 -0.7118678092956543 232 238 254
0.0012511133681982756 -0.025723710656166077 -0.535783052444458 246 228 140
0.12344780564308167 0.005726233124732971 -0.5223757028579712 41 24 0
-0.0558447539806366 0.13958437740802765 -0.41854915022850037 186 165 125
-0.08226540684700012 0.1794680953025818 -0.3430773615837097 255 255 215
-0.0987447127699852 0.17118944227695465 -0.36362019181251526 210 230 254
-0.06181158870458603 0.15449848771095276 -0.3814777433872223 156 160 108
0.10849768668413162 -0.04561948776245117 -0.5576795935630798 248 214 151
0.04694277048110962 0.14348672330379486 -0.41100379824638367 45 141 62
-0.0064064133912324905 -0.05405324697494507 -0.5369167923927307 218 219 129
-0.08841577917337418 0.17586472630500793 -0.376426637172699 108 95 79
0.13348853588104248 -0.016038209199905396 -0.5372902750968933 76 51 51
0.11076795309782028 0.13385510444641113 -0.6321655511856079 60 32 7
0.07048459351062775 0.17788946628570557 -0.3498404920101166 5 12 5
0.017188817262649536 0.12594446539878845 -0.5339287519454956 150 153 175
0.004509725607931614 0.18206538259983063 -0.3339681625366211 4 13 8
0.12228628993034363 -0.08845877647399902 -0.5645473003387451 85 153 74
0.01998739317059517 0.12774889171123505 -0.480868935585022 83 125 72
0.1183900237083435 0.09559673070907593 -0.45431241393089294 251 235 143
0.1042686402797699 0.08641132712364197 -0.45597025752067566 155 158 79
0.0008292141137644649 0.16505545377731323 -0.35162386298179626 166 168 115
-0.002261585323140025 0.12855568528175354 -0.4730207920074463 42 102 48
0.10731099545955658 0.07391307502985 -0.45863044261932373 149 244 107
0.11014716327190399 0.08191272616386414 -0.4531829357147217 133 225 95
0.1193624883890152 0.09168585389852524 -0.46068912744522095 16 1 0
-0.016712861135601997 0.13549493253231049 -0.42888885736465454 219 186 148
0.09247668087482452 0.14118564128875732 -0.6100260615348816 255 254 209
-0.008055516518652439 0.035315416753292084 -0.5408423542976379 182 163 100
-0.0018438248662278056 0.03525979816913605 -0.5410674810409546 178 162 101
-0.1589416116476059 -0.10797348618507385 -0.7217512726783752 150 157 174
-0.1269523799419403 0.12991103529930115 -0.6467207074165344 53 33 15
-0.13309970498085022 -0.015132755041122437 -0.5276440382003784 254 245 254
0.10001480579376221 0.13279052078723907 -0.7395437955856323 99 33 40
0.10762342810630798 0.08089765906333923 -0.5693402290344238 72 9 11
-0.08966106921434402 0.17370323836803436 -0.34851908683776855 240 248 254
-0.0365590862929821 0.10121380537748337 -0.5628223419189453 27 59 30
-0.059105947613716125 -0.10429874062538147 -0.5517271757125854 237 210 135
-0.12561918795108795 0.0436270609498024 -0.44715550541877747 183 183 98
0.00023601359862368554 0.18230748176574707 -0.3169553577899933 239 211 182
